# .PCD v0.7 - Point Cloud Data file format
VERSION 0.7
FIELDS x y z rgb
SIZE 4 4 4 4
TYPE F F F F
COUNT 1 1 1 1
WIDTH 149
HEIGHT 1
VIEWPOINT 0 0 0 1 0 0 0
POINTS 149
DATA ascii
5.9368215 7.3632693 0.9076916 1.2472041e-38
5.9396272 7.3307595 0.91048002 1.2472041e-38
5.8411803 7.2234282 1.1316729 1.2472041e-38
5.944911 7.3314981 1.3199002 1.2472041e-38
5.8699465 7.2613878 0.51357973 1.2472041e-38
5.9368582 7.2925177 0.9143554 1.2472041e-38
5.8598781 7.2085285 1.1312526 1.2472041e-38
5.8858604 7.2017636 0.72509181 1.2472041e-38
5.9415593 7.2580166 0.91712093 1.2472041e-38
5.9669156 7.2822952 1.1165981 1.2472041e-38
5.9974322 7.3119793 1.3175097 1.2472041e-38
5.9015064 7.2207055 0.51461816 1.2472041e-38
5.9507747 7.23279 0.91855371 1.2472041e-38
5.9844131 7.2655988 1.1164 1.2472041e-38
5.9900856 7.2390065 0.91400909 1.2472041e-38
5.9991107 7.2459869 1.116653 1.2472041e-38
5.9015546 7.1128054 0.73306954 1.2472041e-38
5.9168811 7.0924211 0.73349798 1.2472041e-38
5.9727831 7.1178718 0.72409999 1.2472041e-38
5.9895806 6.8639541 0.14126921 1.2472041e-38
5.8176522 6.7962022 -0.022093296 1.2472041e-38
5.8306451 6.7748055 -0.020793676 1.2472041e-38
5.8449426 6.7547421 -0.019994736 1.2472041e-38
5.9110279 6.780076 0.76795316 1.2472041e-38
5.8571758 6.736691 -0.019171953 1.2472041e-38
5.9167924 6.7514882 0.77029502 1.2472041e-38
5.8796692 6.7246685 -0.021375895 1.2472041e-38
5.9382553 6.7746658 0.56567967 1.2472041e-38
5.9234362 6.7218833 0.77262533 1.2472041e-38
5.8920031 6.7007604 -0.019587994 1.2472041e-38
5.9108815 6.6779494 0.77879953 1.2472041e-38
5.906456 6.6829214 -0.019278049 1.2472041e-38
5.9133897 6.6467371 0.78178 1.2472041e-38
5.9344349 6.6760569 -0.023485899 1.2472041e-38
5.959372 6.6952305 0.37364173 1.2472041e-38
5.9935737 6.7256093 0.56397259 1.2472041e-38
5.9408121 6.6524734 -0.020661116 1.2472041e-38
5.9828501 6.6854997 0.57035184 1.2472041e-38
5.954823 6.6230869 0.77917004 1.2472041e-38
5.9546914 6.6321387 -0.019862652 1.2472041e-38
5.978931 6.6527171 0.17602587 1.2472041e-38
5.9825015 6.6515036 0.57452154 1.2472041e-38
5.972888 6.6067324 0.77864838 1.2472041e-38
5.968503 6.6117721 -0.01906395 1.2472041e-38
5.9705358 6.6067896 0.58160865 1.2472041e-38
5.9704862 6.5784292 -0.013769865 1.2472041e-38
5.9534764 6.5602198 0.19473565 1.2472041e-38
5.970829 6.5718889 0.5857687 1.2472041e-38
5.9736781 6.5522146 -0.0099413395 1.2472041e-38
5.9109025 6.4915771 0.21277785 1.2472041e-38
5.985363 6.5562239 0.58558965 1.2472041e-38
5.932847 6.4792805 0.21075487 1.2472041e-38
5.9456787 6.4566441 0.21190882 1.2472041e-38
5.9542975 6.4014182 0.41452694 1.2472041e-38
6.1428127 7.9889765 0.38258779 1.2472041e-38
6.1738157 7.9799371 0.37981105 1.2472041e-38
6.1610861 7.9292154 0.16459918 1.2472041e-38
6.1736364 7.9406104 0.38504791 1.2472041e-38
6.1947217 7.928019 0.15989447 1.2472041e-38
6.0188999 7.7340508 -0.0053451061 1.2472041e-38
6.0451813 7.7208781 -0.007390976 1.2472041e-38
6.0612645 7.7010617 -0.0066871643 1.2472041e-38
6.0825267 7.6869712 -0.0077996254 1.2472041e-38
6.090611 7.6584411 -0.0043706894 1.2472041e-38
6.1012216 7.6327853 -0.0018496513 1.2472041e-38
6.1140389 7.6440787 0.21402216 1.2472041e-38
6.1153584 7.6064157 0.00019145012 1.2472041e-38
6.0776348 7.5630512 0.23137748 1.2472041e-38
6.1413388 7.5928488 -0.0018563271 1.2472041e-38
6.1716614 7.5884461 -0.0061509609 1.2472041e-38
6.145833 7.5582595 0.22194529 1.2472041e-38
6.1966648 7.5782547 -0.0086293221 1.2472041e-38
6.1493106 7.5253816 0.22624075 1.2472041e-38
6.0633106 7.3937888 0.25833476 1.2472041e-38
6.0191455 7.2995195 1.3167734 1.2472041e-38
6.0326691 7.3112545 1.5190773 1.2472041e-38
6.0002704 7.2895646 0.49260235 1.2472041e-38
6.0380745 7.2841163 1.3163949 1.2472041e-38
6.012917 7.2555327 1.5224638 1.2472041e-38
6.0270262 7.2849026 0.2796222 1.2472041e-38
6.0504489 7.3068295 0.48367441 1.2472041e-38
6.0484605 7.262526 0.90591776 1.2472041e-38
6.0231156 7.2338667 1.1155393 1.2472041e-38
6.056674 7.2661657 1.3161826 1.2472041e-38
6.0161777 7.221879 1.5237142 1.2472041e-38
6.0821738 7.2601733 0.90271568 1.2472041e-38
6.0471005 7.2216587 1.1144249 1.2472041e-38
6.0627222 7.2353063 1.3175831 1.2472041e-38
6.1151295 7.2612281 0.89926553 1.2472041e-38
6.0716791 7.2143259 1.1128836 1.2472041e-38
6.1317034 7.2413273 0.69177985 1.2472041e-38
6.1486273 7.2561054 0.89632022 1.2472041e-38
6.0981121 7.2022948 1.1115296 1.2472041e-38
6.1368918 7.2140017 0.694134 1.2472041e-38
6.1983805 7.2738047 0.88960445 1.2472041e-38
6.129673 7.2018476 1.1088573 1.2472041e-38
6.1707115 7.2409344 1.3098092 1.2472041e-38
6.1701212 7.2036843 1.1052421 1.2472041e-38
6.0234661 7.1925521 1.5245665 1.2472041e-38
6.0041389 7.1871743 0.2972095 1.2472041e-38
6.0567303 7.1966143 1.3202637 1.2472041e-38
6.0452247 7.1824641 1.5238485 1.2472041e-38
6.0789413 7.180388 1.3196809 1.2472041e-38
6.0743999 7.1733928 1.5226936 1.2472041e-38
6.032732 7.1454692 0.29884815 1.2472041e-38
6.0989485 7.165977 1.5217085 1.2472041e-38
6.0405116 7.1212778 0.30111933 1.2472041e-38
6.1493874 7.1876731 0.69549704 1.2472041e-38
6.0541477 7.0966954 0.30253458 1.2472041e-38
6.1659675 7.1655164 0.6959064 1.2472041e-38
6.1659355 7.170404 0.2748692 1.2472041e-38
6.1537428 7.155746 0.48874509 1.2472041e-38
6.1890564 7.1563034 0.69412768 1.2472041e-38
6.1684089 7.1382132 0.48892069 1.2472041e-38
6.0117931 6.9469895 0.53422379 1.2472041e-38
6.0257711 6.9279413 0.33079398 1.2472041e-38
6.0223627 6.9222164 0.53583658 1.2472041e-38
6.0076542 6.8792691 0.34044468 1.2472041e-38
6.0264444 6.8651533 0.13469064 1.2472041e-38
6.0135503 6.8066339 0.95106208 1.2472041e-38
6.0225692 6.7829461 0.9522295 1.2472041e-38
6.0106273 6.7760854 0.55543268 1.2472041e-38
6.0425391 6.767776 0.95147824 1.2472041e-38
6.0575933 6.7519264 0.95129573 1.2472041e-38
6.074605 6.7339168 0.95108879 1.2472041e-38
6.0052352 6.675271 0.36915696 1.2472041e-38
6.0220051 6.6574101 0.36895192 1.2472041e-38
6.003932 6.6050496 0.37898862 1.2472041e-38
6.0000296 6.5436425 -0.013650894 1.2472041e-38
6.0155897 6.5140519 0.7829324 1.2472041e-38
6.035902 6.5417662 -0.02038002 1.2472041e-38
6.051774 6.5272317 -0.021061182 1.2472041e-38
6.0680952 6.5092292 -0.021265507 1.2472041e-38
6.0853186 6.4901156 -0.021482229 1.2472041e-38
6.1010661 6.4754395 -0.022164345 1.2472041e-38
6.1152925 6.4536452 -0.021378994 1.2472041e-38
6.1386395 6.4418764 -0.024090528 1.2472041e-38
6.1513677 6.4244871 -0.023770809 1.2472041e-38
6.1644716 6.4036374 -0.022973537 1.2472041e-38
6.2306008 7.2669344 0.88692784 1.2472041e-38
6.2015061 7.2328062 1.3081465 1.2472041e-38
6.2168074 7.2090616 1.3084564 1.2472041e-38
6.3822174 7.3894157 -0.0094418526 1.2472041e-38
6.2485681 7.2082014 1.3062918 1.2472041e-38
6.3974972 7.3712916 -0.0091824532 1.2472041e-38
6.2241092 7.1545587 0.69009662 1.2472041e-38
6.274817 7.0947108 1.1042156 1.2472041e-38
6.2696004 7.051497 1.1078336 1.2472041e-38
6.2678146 7.016067 1.1105731 1.2472041e-38
