# .PCD v0.7 - Point Cloud Data file format
VERSION 0.7
FIELDS x y z rgb
SIZE 4 4 4 4
TYPE F F F F
COUNT 1 1 1 1
WIDTH 1062
HEIGHT 1
VIEWPOINT 0 0 0 1 0 0 0
POINTS 1062
DATA ascii
7.1118469 2.5380211 0.89107561 2.3509886e-38
7.1783175 2.5508471 1.0543622 2.3509886e-38
7.1499228 2.5509763 0.35255682 2.3509886e-38
7.1000485 2.5385838 0.54212594 2.3509886e-38
7.0857911 2.5339389 0.72050786 2.3509886e-38
7.1141572 2.5177321 0.89122725 2.3509886e-38
7.1408715 2.5281379 0.35563231 2.3509886e-38
7.1138439 2.5207798 0.53985298 2.3509886e-38
7.0861726 2.5133119 0.72107995 2.3509886e-38
7.1144791 2.497036 0.89170694 2.3509886e-38
7.1965075 2.5127492 1.0525964 2.3509886e-38
7.1393609 2.506969 0.35684967 2.3509886e-38
7.1027198 2.4976659 0.54303229 2.3509886e-38
7.0884171 2.4930999 0.72127855 2.3509886e-38
7.1205359 2.4775524 0.89120305 2.3509886e-38
7.192925 2.4910295 1.0535467 2.3509886e-38
7.1415977 2.4866133 0.3571378 2.3509886e-38
7.1068387 2.4778106 0.54285669 2.3509886e-38
7.0925274 2.4732866 0.72110331 2.3509886e-38
7.119061 2.4552217 0.8920002 2.3509886e-38
7.1649904 2.4693072 0.35230219 2.3509886e-38
7.1149864 2.4574871 0.54183114 2.3509886e-38
7.0929847 2.4514346 0.72166514 2.3509886e-38
7.1213837 2.4336913 0.8921417 2.3509886e-38
7.1860666 2.4451761 1.0554267 2.3509886e-38
7.1521153 2.4445581 0.35629809 2.3509886e-38
7.1115742 2.4348073 0.54332292 2.3509886e-38
7.0933747 2.4295926 0.72222733 2.3509886e-38
7.1238866 2.4109156 0.89227235 2.3509886e-38
7.188602 2.4221985 1.0555097 2.3509886e-38
7.1355877 2.4178929 0.36121404 2.3509886e-38
7.1121702 2.4116807 0.5439651 2.3509886e-38
7.0977955 2.4072866 0.72203076 2.3509886e-38
7.1939783 2.4050002 1.0550728 2.3509886e-38
7.1868911 2.4020948 1.2290239 2.3509886e-38
7.12148 2.392359 0.89310336 2.3509886e-38
7.1256342 2.3978176 0.36431503 2.3509886e-38
7.121325 2.3954132 0.54255283 2.3509886e-38
7.0973296 2.389173 0.72262645 2.3509886e-38
7.1199756 2.3688493 0.89389122 2.3509886e-38
7.1983299 2.3823819 1.0548739 2.3509886e-38
7.1624155 2.3816698 0.35621285 2.3509886e-38
7.1237135 2.3726473 0.54277575 2.3509886e-38
7.0977645 2.3661122 0.72317863 2.3509886e-38
7.128087 2.3471947 0.89303803 2.3509886e-38
7.1889911 2.3571787 1.0566517 2.3509886e-38
7.1552095 2.3569684 0.35880542 2.3509886e-38
7.1241078 2.3495164 0.54341853 2.3509886e-38
7.1039171 2.3441577 0.72260845 2.3509886e-38
7.1259756 2.3261898 0.8938483 2.3509886e-38
7.1888361 2.3363647 1.0570403 2.3509886e-38
7.1321621 2.3319659 0.36514139 2.3509886e-38
7.1220469 2.328526 0.54450357 2.3509886e-38
7.1037483 2.3235822 0.72318304 2.3509886e-38
7.1296239 2.3062739 0.89367378 2.3509886e-38
7.1847258 2.3148494 1.0579942 2.3509886e-38
7.143466 2.3134346 0.36310625 2.3509886e-38
7.1295404 2.3093243 0.54348934 2.3509886e-38
7.1015882 2.3026628 0.72413218 2.3509886e-38
7.1334391 2.2851024 0.89348853 2.3509886e-38
7.1846724 2.2928145 1.0583726 2.3509886e-38
7.1453762 2.2918699 0.36338568 2.3509886e-38
7.1295075 2.2874541 0.54414403 2.3509886e-38
7.1092558 2.2822702 0.72319877 2.3509886e-38
7.1294208 2.2625432 0.8946172 2.3509886e-38
7.1884518 2.2714813 1.0581862 2.3509886e-38
7.1472201 2.2703056 0.36366558 2.3509886e-38
7.1294079 2.2655954 0.54479885 2.3509886e-38
7.1091266 2.2604713 0.72376323 2.3509886e-38
7.1350498 2.2417104 0.894104 2.3509886e-38
7.1804633 2.2481027 1.0596956 2.3509886e-38
7.1796579 2.2540965 0.35650074 2.3509886e-38
7.1388731 2.245429 0.54335392 2.3509886e-38
7.112802 2.2393589 0.72357893 2.3509886e-38
7.1365175 2.2214367 0.89425874 2.3509886e-38
7.1799936 2.2273693 1.060086 2.3509886e-38
7.1428347 2.2271097 0.36609817 2.3509886e-38
7.1403604 2.2251434 0.5436002 2.3509886e-38
7.1162043 2.2194781 0.72340572 2.3509886e-38
7.1357741 2.2020831 0.8947531 2.3509886e-38
7.1773024 2.2075734 1.0607704 2.3509886e-38
7.1785898 2.2139032 0.35802352 2.3509886e-38
7.1280856 2.2038269 0.54679823 2.3509886e-38
7.1154685 2.2001781 0.72399259 2.3509886e-38
7.1394844 2.179647 0.89455795 2.3509886e-38
7.1810341 2.1850085 1.0605742 2.3509886e-38
7.1650534 2.1884618 0.3620162 2.3509886e-38
7.1375799 2.1823697 0.54534268 2.3509886e-38
7.1172304 2.1774833 0.72417283 2.3509886e-38
7.1431246 2.1571989 0.89436316 2.3509886e-38
7.1827407 2.1621158 1.0606608 2.3509886e-38
7.1725473 2.1665523 0.36088967 2.3509886e-38
7.1450791 2.1605511 0.54430735 2.3509886e-38
7.1247377 2.1557326 0.72322893 2.3509886e-38
7.1283731 2.1369352 0.89717007 2.3509886e-38
7.1835828 2.1442418 1.0607915 2.3509886e-38
7.1618977 2.1468556 0.36399627 2.3509886e-38
7.1459317 2.142767 0.54457593 2.3509886e-38
7.1197529 2.1370695 0.72457683 2.3509886e-38
7.1123877 2.1114769 0.90026379 2.3509886e-38
7.1832032 2.1210468 1.0611618 2.3509886e-38
7.1942444 2.1288543 0.35681713 2.3509886e-38
7.1475153 2.1199925 0.54480171 2.3509886e-38
7.121314 2.114378 0.72475779 2.3509886e-38
7.1212864 2.0924973 0.89910519 2.3509886e-38
7.1960673 2.1024728 1.0595732 2.3509886e-38
7.1742601 2.1051893 0.36223066 2.3509886e-38
7.1505799 2.1000137 0.54462874 2.3509886e-38
7.1263089 2.0947726 0.72421074 2.3509886e-38
7.1184301 2.0717142 0.89991987 2.3509886e-38
7.1912627 2.0811863 1.0605315 2.3509886e-38
7.177279 2.0851343 0.36205733 2.3509886e-38
7.1458545 2.0788589 0.54613769 2.3509886e-38
7.125422 2.0742693 0.72478855 2.3509886e-38
7.19068 2.0580018 1.0609024 2.3509886e-38
7.1709881 2.0611386 0.36419129 2.3509886e-38
7.1511035 2.0566735 0.54552341 2.3509886e-38
7.1287265 2.0518641 0.72459507 2.3509886e-38
7.1171513 2.025816 0.9008497 2.3509886e-38
7.190022 2.0348315 1.0612738 2.3509886e-38
7.1646171 2.0371931 0.36632597 2.3509886e-38
7.1582184 2.0347452 0.54448843 2.3509886e-38
7.1280723 2.0288877 0.7251519 2.3509886e-38
7.1160541 2.005374 0.90133655 2.3509886e-38
7.1948209 2.0150161 1.0608177 2.3509886e-38
7.1809263 2.0190783 0.36289275 2.3509886e-38
7.1571727 2.0141883 0.54515743 2.3509886e-38
7.1289406 2.0086904 0.72535539 2.3509886e-38
7.1305318 1.9871103 0.89919102 2.3509886e-38
7.1858358 1.9932842 1.062344 2.3509886e-38
7.181778 1.9987366 0.36318576 2.3509886e-38
7.1580048 1.9939141 0.54540586 2.3509886e-38
7.1316986 1.9887656 0.72518408 2.3509886e-38
7.1390972 1.9679782 0.89803255 2.3509886e-38
7.1944442 1.974001 1.0613216 2.3509886e-38
7.1957245 1.981741 0.17961574 2.3509886e-38
7.1671553 1.9762983 0.36720681 2.3509886e-38
7.1568422 1.9733797 0.54607534 2.3509886e-38
7.1363478 1.9690976 0.72463775 2.3509886e-38
7.1536427 1.9483354 0.89587569 2.3509886e-38
7.1953144 1.9523804 1.0614218 2.3509886e-38
7.191186 1.9578359 0.36189842 2.3509886e-38
7.1596613 1.952125 0.54589295 2.3509886e-38
7.1411057 1.9481642 0.72408056 2.3509886e-38
7.1583519 1.9273474 0.8953644 2.3509886e-38
7.1941566 1.9305093 1.0618054 2.3509886e-38
7.1624174 1.9308619 0.5457108 2.3509886e-38
7.13801 1.9261999 0.72502482 2.3509886e-38
7.1572847 1.9043471 0.89583051 2.3509886e-38
7.1813807 1.9118936 0.36525059 2.3509886e-38
7.1672068 1.9085853 0.54509735 2.3509886e-38
7.1466956 1.904496 0.72370672 2.3509886e-38
7.1617131 1.8845873 0.89533019 2.3509886e-38
7.1761394 1.890861 0.36694336 2.3509886e-38
7.1677399 1.888312 0.54534698 2.3509886e-38
7.1394148 1.8833163 0.72541296 2.3509886e-38
7.1621695 1.864337 0.89548874 2.3509886e-38
7.1959372 1.8729093 0.36257672 2.3509886e-38
7.1623936 1.8673375 0.54685974 2.3509886e-38
7.1457224 1.8638344 0.72449183 2.3509886e-38
7.1628594 1.8415892 0.89562631 2.3509886e-38
7.1986942 1.8443315 1.061926 2.3509886e-38
7.1650434 1.8448153 0.5466677 2.3509886e-38
7.1464148 1.8411369 0.72467589 2.3509886e-38
7.1609507 1.8236239 0.89613593 2.3509886e-38
7.1709404 1.8277408 0.54567647 2.3509886e-38
7.1484218 1.8236611 0.724527 2.3509886e-38
7.1654329 1.8013297 0.89561498 2.3509886e-38
7.1993151 1.8036551 1.0621511 2.3509886e-38
7.1915612 1.808725 0.3648392 2.3509886e-38
7.1715226 1.804974 0.54590583 2.3509886e-38
7.1470342 1.8007476 0.72508705 2.3509886e-38
7.1657887 1.7798406 0.89576399 2.3509886e-38
7.1699543 1.7832518 0.54656696 2.3509886e-38
7.1493454 1.7795248 0.72490668 2.3509886e-38
7.1658187 1.760859 0.89593434 2.3509886e-38
7.1997547 1.7689273 0.36356509 2.3509886e-38
7.1719475 1.7644644 0.5464077 2.3509886e-38
7.1513324 1.760793 0.72474778 2.3509886e-38
7.1720672 1.7387348 0.89508402 2.3509886e-38
7.1723289 1.7417116 0.54663789 2.3509886e-38
7.1536522 1.7383081 0.7245574 2.3509886e-38
7.172112 1.7184958 0.89524424 2.3509886e-38
7.1924963 1.7249845 0.36600196 2.3509886e-38
7.1762824 1.7218608 0.54604697 2.3509886e-38
7.1576095 1.7185118 0.72401237 2.3509886e-38
7.1740627 1.6984537 0.89507473 2.3509886e-38
7.1762891 1.7016129 0.54629886 2.3509886e-38
7.1615119 1.698699 0.72346771 2.3509886e-38
7.1761909 1.6758995 0.89488447 2.3509886e-38
7.1745253 1.6786798 0.54695106 2.3509886e-38
7.1597247 1.6758132 0.7240293 2.3509886e-38
7.1801004 1.6547716 0.89437497 2.3509886e-38
7.1811094 1.6592824 0.36966074 2.3509886e-38
7.1784172 1.6575524 0.54635 2.3509886e-38
7.1636219 1.654732 0.72347414 2.3509886e-38
7.1797996 1.6357874 0.89454651 2.3509886e-38
7.1820283 1.6389165 0.54577029 2.3509886e-38
7.1613688 1.6356158 0.72406805 2.3509886e-38
7.1816249 1.6144698 0.89436734 2.3509886e-38
7.1799593 1.6172535 0.54643381 2.3509886e-38
7.1651468 1.6145189 0.72351313 2.3509886e-38
7.1854553 1.5920544 0.89384758 2.3509886e-38
7.1837716 1.5948389 0.54582274 2.3509886e-38
7.167007 1.5919914 0.72332394 2.3509886e-38
7.1908879 1.573544 0.89302969 2.3509886e-38
7.1833224 1.5758598 0.54608643 2.3509886e-38
7.1704617 1.5733707 0.72279036 2.3509886e-38
7.1906567 1.550787 0.89317036 2.3509886e-38
7.1831069 1.5531231 0.54631877 2.3509886e-38
7.1702332 1.5506761 0.72297764 2.3509886e-38
7.1903534 1.5280371 0.89331138 2.3509886e-38
7.1886692 1.5308254 0.54528654 2.3509886e-38
7.1777701 1.5285656 0.72166049 2.3509886e-38
7.1916857 1.5092003 0.89315391 2.3509886e-38
7.1822014 1.5114343 0.54681599 2.3509886e-38
7.1771407 1.5096213 0.7218796 2.3509886e-38
7.1990399 1.4882485 0.89198518 2.3509886e-38
7.1895008 1.4905057 0.54537272 2.3509886e-38
7.1746683 1.4880435 0.72245431 2.3509886e-38
7.1889362 1.4690289 0.54561663 2.3509886e-38
7.1760516 1.46674 0.72227669 2.3509886e-38
7.1940088 1.4504373 0.5446161 2.3509886e-38
7.1772194 1.4479394 0.72212029 2.3509886e-38
7.1952763 1.4290746 0.54443848 2.3509886e-38
7.1804447 1.4267449 0.72156668 2.3509886e-38
7.181715 1.4041703 0.72137916 2.3509886e-38
7.1995077 1.3877007 0.5436722 2.3509886e-38
7.1846805 1.3854603 0.72084665 2.3509886e-38
7.1858211 1.3628724 0.72065961 2.3509886e-38
7.1887946 1.3416295 0.72010636 2.3509886e-38
7.1837482 1.3225317 0.72108078 2.3509886e-38
7.1905279 1.3014487 0.7197746 2.3509886e-38
7.1914043 1.2788429 0.71958828 2.3509886e-38
7.1960497 1.2588879 0.7186693 2.3509886e-38
7.196753 1.2375219 0.7184937 2.3509886e-38
7.1973567 1.2174108 0.7183286 2.3509886e-38
7.1912241 1.1985404 0.54549611 2.3509886e-38
7.195941 1.1972443 0.71854067 2.3509886e-38
7.1995897 1.1761223 0.54362106 2.3509886e-38
7.1964898 1.1746221 0.7183553 2.3509886e-38
7.1989069 1.1532968 0.7178036 2.3509886e-38
7.26191 4.1917629 0.60517657 2.3509886e-38
7.2225246 4.1507568 0.42458987 2.3509886e-38
7.3784542 4.1890087 0.7786566 2.3509886e-38
7.2282104 4.1277423 0.42521465 2.3509886e-38
7.3759356 4.1345882 0.78211582 2.3509886e-38
7.3386312 4.0960779 0.79004407 2.3509886e-38
7.347753 4.0742769 0.78983462 2.3509886e-38
7.2875443 4.0237093 0.80196273 2.3509886e-38
7.2484822 3.9838035 0.81021047 2.3509886e-38
7.2243843 3.9488466 0.81585014 2.3509886e-38
7.2152853 3.9187219 0.81888151 2.3509886e-38
7.3741231 3.9587331 0.98072326 2.3509886e-38
7.3515596 3.9243851 0.98525798 2.3509886e-38
7.341753 3.8952832 0.98784101 2.3509886e-38
7.206048 3.8488774 0.26095939 2.3509886e-38
7.3202744 3.8632178 0.99211204 2.3509886e-38
7.282548 3.8235762 0.99888539 2.3509886e-38
7.2877502 3.834595 0.049431324 2.3509886e-38
7.222415 3.8055596 0.44965482 2.3509886e-38
7.2982092 3.8101079 0.43403339 2.3509886e-38
7.2718592 3.1182268 0.29584467 2.3509886e-38
7.2012482 3.0574911 -0.057590723 2.3509886e-38
7.3927736 3.0752194 1.1921546 2.3509886e-38
7.3357201 3.0357401 1.1997058 2.3509886e-38
7.2043195 3.0108345 -0.055223465 2.3509886e-38
7.2107711 2.9807463 1.215506 2.3509886e-38
7.2132177 2.9929709 -0.056502581 2.3509886e-38
7.2156801 2.9692647 -0.05560112 2.3509886e-38
7.2285233 2.9510894 -0.057999372 2.3509886e-38
7.2283244 2.9293885 -0.056520462 2.3509886e-38
7.2324367 2.9061575 -0.056172609 2.3509886e-38
7.239542 2.8864172 -0.056909084 2.3509886e-38
7.2503157 2.8676105 -0.058753967 2.3509886e-38
7.2560921 2.8448005 -0.058959484 2.3509886e-38
7.2537112 2.8226364 -0.056925535 2.3509886e-38
7.2643189 2.8037415 -0.05877018 2.3509886e-38
7.2001824 2.7764897 1.2210908 2.3509886e-38
7.2018461 2.7529125 1.2213584 2.3509886e-38
7.2661614 2.7799735 -0.05786705 2.3509886e-38
7.2105551 2.7337151 1.2207071 2.3509886e-38
7.2766581 2.7610109 -0.05971241 2.3509886e-38
7.2095509 2.7121878 1.2212331 2.3509886e-38
7.2721534 2.7384291 -0.057122707 2.3509886e-38
7.2226067 2.6913323 1.220088 2.3509886e-38
7.2831345 2.7168736 -0.05899024 2.3509886e-38
7.2369571 2.6733856 1.2187295 2.3509886e-38
7.2934661 2.6978149 -0.060835838 2.3509886e-38
7.3010912 2.6638262 1.3885026 2.3509886e-38
7.2909279 2.6744249 -0.058811188 2.3509886e-38
7.2992744 2.6548872 -0.060101986 2.3509886e-38
7.3041 2.6332002 -0.060294867 2.3509886e-38
7.3104601 2.6131904 -0.061031342 2.3509886e-38
7.2780495 2.5932178 1.3915433 2.3509886e-38
7.281054 2.5699186 1.3915296 2.3509886e-38
7.3116813 2.5893764 -0.060125828 2.3509886e-38
7.2058349 2.5357385 1.0508006 2.3509886e-38
7.2834463 2.5491595 1.3915386 2.3509886e-38
7.3160419 2.5689313 -0.060307264 2.3509886e-38
7.2779851 2.5267639 1.3923057 2.3509886e-38
7.3203454 2.5484741 -0.060488462 2.3509886e-38
7.2841535 2.5068312 1.3919363 2.3509886e-38
7.322711 2.5276127 -0.060114384 2.3509886e-38
7.2011719 2.4704633 1.0527936 2.3509886e-38
7.2924771 2.4860005 1.3913661 2.3509886e-38
7.3252773 2.50547 -0.059752226 2.3509886e-38
7.2821851 2.4629598 1.2168624 2.3509886e-38
7.333426 2.4844694 -0.061053991 2.3509886e-38
7.2798967 2.4371705 1.3930593 2.3509886e-38
7.3285761 2.4595237 -0.058482409 2.3509886e-38
7.2833724 2.4193726 1.3929026 2.3509886e-38
7.3358488 2.4423354 -0.059750319 2.3509886e-38
7.3092866 2.4005988 1.3906138 2.3509886e-38
7.3365154 2.418529 -0.058842897 2.3509886e-38
7.2556028 2.3918476 1.2210279 2.3509886e-38
7.2833362 2.3734541 1.2179916 2.3509886e-38
7.3175454 2.3783591 1.3900323 2.3509886e-38
7.344656 2.3961682 -0.060156107 2.3509886e-38
7.3722467 2.367353 1.3849162 2.3509886e-38
7.3465886 2.3752782 -0.059780836 2.3509886e-38
7.3681855 2.3453238 1.3854955 2.3509886e-38
7.3503513 2.3547368 -0.059960842 2.3509886e-38
7.2322049 2.2998505 1.2250128 2.3509886e-38
7.3819256 2.3252082 1.3843541 2.3509886e-38
7.3542862 2.3328996 -0.060151815 2.3509886e-38
7.2360086 2.278378 1.2248251 2.3509886e-38
7.3657222 2.3123991 -0.062563896 2.3509886e-38
7.2749691 2.2630086 1.2203791 2.3509886e-38
7.3600698 2.2888598 -0.059978008 2.3509886e-38
7.2432103 2.2366638 1.2244613 2.3509886e-38
7.3711643 2.2695854 -0.062379122 2.3509886e-38
7.2855744 2.2242718 1.2195625 2.3509886e-38
7.3706284 2.2496216 -0.061436653 2.3509886e-38
7.2200923 2.2225068 0.16577685 2.3509886e-38
7.376358 2.2267518 -0.062193632 2.3509886e-38
7.3877053 2.2047858 -0.064617395 2.3509886e-38
7.2501717 2.1949096 1.224098 2.3509886e-38
7.2950377 2.1787701 1.2189276 2.3509886e-38
7.2410021 2.1518869 1.2256408 2.3509886e-38
7.3848929 2.1857986 -0.063107252 2.3509886e-38
7.2628055 2.1646008 0.15654337 2.3509886e-38
7.382833 2.1616731 -0.061641455 2.3509886e-38
7.2530074 2.1396561 0.15992212 2.3509886e-38
7.284966 2.1145873 1.2207669 2.3509886e-38
7.387898 2.1413245 -0.062376022 2.3509886e-38
7.2880301 2.0942316 1.2205909 2.3509886e-38
7.387208 2.1200924 -0.061442852 2.3509886e-38
7.2916718 2.1040139 0.15088367 2.3509886e-38
7.273726 2.0687232 1.2225264 2.3509886e-38
7.2147212 2.0691752 0.17215168 2.3509886e-38
7.243608 2.0410552 1.2263597 2.3509886e-38
7.3977923 2.0741606 -0.062955618 2.3509886e-38
7.2294769 2.0481482 0.16888916 2.3509886e-38
7.2759647 2.0249705 1.2226286 2.3509886e-38
7.3950076 2.0526648 -0.06146574 2.3509886e-38
7.2112741 2.0249438 0.17433822 2.3509886e-38
7.2846799 2.0054548 1.2217422 2.3509886e-38
7.2217245 2.0058508 0.17211998 2.3509886e-38
7.2854714 1.9848342 1.2218046 2.3509886e-38
7.3060584 1.9655466 1.2194836 2.3509886e-38
7.2234745 1.963691 0.17278516 2.3509886e-38
7.2714496 1.939024 1.223807 2.3509886e-38
7.2320075 1.9429846 0.17106736 2.3509886e-38
7.2016687 1.9374816 0.35985136 2.3509886e-38
7.2009463 1.9083884 1.0610451 2.3509886e-38
7.2605491 1.9144294 1.225273 2.3509886e-38
7.3560796 1.9249611 1.3891933 2.3509886e-38
7.2406392 1.920971 0.16933823 2.3509886e-38
7.2034316 1.8882664 1.0608732 2.3509886e-38
7.2450576 1.9009678 0.16865373 2.3509886e-38
7.2078261 1.8683745 1.0604178 2.3509886e-38
7.2635317 1.8736119 1.2251639 2.3509886e-38
7.3452849 1.8819515 1.3903699 2.3509886e-38
7.2091146 1.8760492 0.17871141 2.3509886e-38
7.264245 1.8505486 1.2252069 2.3509886e-38
7.330205 1.8567841 1.3918923 2.3509886e-38
7.2425032 1.8570112 0.17033303 2.3509886e-38
7.2043939 1.8509641 0.36098516 2.3509886e-38
7.2007151 1.826731 1.0617762 2.3509886e-38
7.2741761 1.8336937 1.2241054 2.3509886e-38
7.3302841 1.8386387 1.3919308 2.3509886e-38
7.2138076 1.8357357 0.17836797 2.3509886e-38
7.2083492 1.8335668 0.36036885 2.3509886e-38
7.2708163 1.8101685 1.2246237 2.3509886e-38
7.3269291 1.8149385 1.3923082 2.3509886e-38
7.2016425 1.7822807 1.0619695 2.3509886e-38
7.2711926 1.7883694 1.224678 2.3509886e-38
7.3391938 1.7942599 1.3911676 2.3509886e-38
7.2054873 1.7886357 0.36185968 2.3509886e-38
7.2016749 1.7632065 1.0620931 2.3509886e-38
7.2732129 1.7693233 1.2245165 2.3509886e-38
7.3491521 1.7758734 1.3902397 2.3509886e-38
7.2059803 1.7407697 1.0616176 2.3509886e-38
7.3416328 1.7517605 1.3910004 2.3509886e-38
7.2364941 1.751384 0.17405748 2.3509886e-38
7.2195001 1.7480904 0.35917521 2.3509886e-38
7.2040572 1.7202406 1.0620148 2.3509886e-38
7.3309598 1.7314565 1.21773 2.3509886e-38
7.206017 1.7001107 1.0618447 2.3509886e-38
7.2637749 1.7042665 1.2258818 2.3509886e-38
7.2060671 1.7060179 0.36303282 2.3509886e-38
7.206183 1.6772728 1.0619375 2.3509886e-38
7.3351288 1.6879241 1.2173624 2.3509886e-38
7.221467 1.686137 0.17915452 2.3509886e-38
7.2140136 1.6839079 0.36144161 2.3509886e-38
7.2101073 1.6560578 1.0614731 2.3509886e-38
7.3173394 1.6643533 1.2195582 2.3509886e-38
7.205862 1.6366479 1.0621662 2.3509886e-38
7.3190351 1.6451867 1.2193969 2.3509886e-38
7.2250991 1.6457574 0.17881441 2.3509886e-38
7.2040825 1.6423646 0.3643688 2.3509886e-38
7.2076941 1.6152549 1.0619862 2.3509886e-38
7.3426604 1.6253129 1.2165956 2.3509886e-38
7.2233524 1.622472 0.35998809 2.3509886e-38
7.3445663 1.6022332 1.2164018 2.3509886e-38
7.2442269 1.6028526 0.17434597 2.3509886e-38
7.2115378 1.5927596 1.0615119 2.3509886e-38
7.2077856 1.5983095 0.36399841 2.3509886e-38
7.2130432 1.5738688 1.0613533 2.3509886e-38
7.3441195 1.5828385 1.2164786 2.3509886e-38
7.236104 1.5830915 0.17674756 2.3509886e-38
7.2228594 1.5805128 0.36057222 2.3509886e-38
7.2147837 1.5511948 1.0611634 2.3509886e-38
7.3122311 1.5571895 1.2203346 2.3509886e-38
7.2436337 1.5607828 0.17502022 2.3509886e-38
7.2090917 1.5566022 0.36411703 2.3509886e-38
7.2164536 1.5285153 1.0609738 2.3509886e-38
7.3416495 1.5362309 1.2168069 2.3509886e-38
7.2607346 1.539148 0.17073143 2.3509886e-38
7.2262754 1.5350819 0.36019182 2.3509886e-38
7.2197647 1.5097513 1.0605315 2.3509886e-38
7.3509331 1.5175591 1.215693 2.3509886e-38
7.2276144 1.5161459 0.36003375 2.3509886e-38
7.2251706 1.4885846 1.0597838 2.3509886e-38
7.3345838 1.4945353 1.2176559 2.3509886e-38
7.2484746 1.4960091 0.35518432 2.3509886e-38
7.2004275 1.4668744 0.89180696 2.3509886e-38
7.2265635 1.4671347 1.059605 2.3509886e-38
7.3736486 1.475189 1.212945 2.3509886e-38
7.2572298 1.4764715 0.17226219 2.3509886e-38
7.2149425 1.4721966 0.36341226 2.3509886e-38
7.2015996 1.4480115 0.89164996 2.3509886e-38
7.2257633 1.4480827 1.0597318 2.3509886e-38
7.3332276 1.4533027 1.2177913 2.3509886e-38
7.2413478 1.4548757 0.35718226 2.3509886e-38
7.2008986 1.4265134 0.89180255 2.3509886e-38
7.2309885 1.4268645 1.0589846 2.3509886e-38
7.3186607 1.4306011 1.2195182 2.3509886e-38
7.2654791 1.4362431 0.17038715 2.3509886e-38
7.2426238 1.4333706 0.35700345 2.3509886e-38
7.2041421 1.4039868 0.89128411 2.3509886e-38
7.2322674 1.4041348 1.0587958 2.3509886e-38
7.3397813 1.4087018 1.2169418 2.3509886e-38
7.2725554 1.4137244 0.16865969 2.3509886e-38
7.2458463 1.4107064 0.35634708 2.3509886e-38
7.2004528 1.4066718 0.54340661 2.3509886e-38
7.2090888 1.385325 0.89046657 2.3509886e-38
7.2313018 1.3850851 1.0589232 2.3509886e-38
7.3408074 1.3894774 1.2167825 2.3509886e-38
7.2526855 1.3920348 0.35478783 2.3509886e-38
7.2102327 1.3626623 0.89027894 2.3509886e-38
7.2324491 1.3623546 1.058735 2.3509886e-38
7.3697376 1.3677903 1.2132506 2.3509886e-38
7.2499523 1.3690314 0.3555336 2.3509886e-38
7.2045555 1.3652623 0.54264057 2.3509886e-38
7.2092776 1.3411624 0.89043236 2.3509886e-38
7.235445 1.340977 1.0582727 2.3509886e-38
7.3529229 1.345076 1.2152176 2.3509886e-38
7.2776823 1.3502799 0.16762078 2.3509886e-38
7.2296066 1.3464772 0.36049652 2.3509886e-38
7.2036171 1.3437755 0.54288554 2.3509886e-38
7.212091 1.3223649 0.88994575 2.3509886e-38
7.2422233 1.3222884 1.0572618 2.3509886e-38
7.3617177 1.3261689 1.2141037 2.3509886e-38
7.3943858 1.3261701 1.3853192 2.3509886e-38
7.2766023 1.3311205 0.16797602 2.3509886e-38
7.2304521 1.3275334 0.36034 2.3509886e-38
7.2064123 1.3249896 0.54230762 2.3509886e-38
7.2149568 1.301035 0.88943827 2.3509886e-38
7.2411451 1.3007066 1.0573694 2.3509886e-38
7.3110476 1.3021842 1.2201314 2.3509886e-38
7.3913255 1.3040587 1.3855226 2.3509886e-38
7.241065 1.3064723 0.35782552 2.3509886e-38
7.2073073 1.3035905 0.54213107 2.3509886e-38
7.2178073 1.2784305 0.88892066 2.3509886e-38
7.2400494 1.2778697 1.0574666 2.3509886e-38
7.3417025 1.280342 1.2163596 2.3509886e-38
7.3902369 1.280754 1.3855236 2.3509886e-38
7.2244592 1.2830186 0.36184537 2.3509886e-38
7.2023253 1.2807016 0.54321098 2.3509886e-38
7.2185287 1.2582622 0.88875473 2.3509886e-38
7.2467084 1.2578521 1.0564454 2.3509886e-38
7.3543429 1.2602524 1.2147577 2.3509886e-38
7.2582183 1.2640281 0.3537308 2.3509886e-38
7.2010922 1.2605025 0.54346764 2.3509886e-38
7.2192345 1.2368312 0.88857853 2.3509886e-38
7.247416 1.2363393 1.0562686 2.3509886e-38
7.3471227 1.2381645 1.215534 2.3509886e-38
7.2096119 1.239379 0.54160261 2.3509886e-38
7.2218113 1.2167182 0.88808215 2.3509886e-38
7.2539606 1.2162672 1.0552473 2.3509886e-38
7.3755264 1.2184616 1.2120199 2.3509886e-38
7.2843084 1.2244315 0.1660707 2.3509886e-38
7.2121706 1.2192898 0.54101479 2.3509886e-38
7.2346225 1.2026631 0.17924249 2.3509886e-38
7.2639775 1.2020035 0.3522855 2.3509886e-38
7.226305 1.1966463 0.88725483 2.3509886e-38
7.2505546 1.1958929 1.0556512 2.3509886e-38
7.3721175 1.1977499 1.212329 2.3509886e-38
7.2288275 1.173978 0.88673782 2.3509886e-38
7.2570448 1.1732446 1.0546093 2.3509886e-38
7.3826051 1.1748147 1.2109439 2.3509886e-38
7.2042551 1.1791444 0.18726528 2.3509886e-38
7.2256522 1.1782045 0.36145294 2.3509886e-38
7.2312551 1.1525584 0.8862313 2.3509886e-38
7.2575021 1.1517016 1.0544331 2.3509886e-38
7.33741 1.1519551 1.2162642 2.3509886e-38
7.2047091 1.1577487 0.18709028 2.3509886e-38
7.2047234 1.1562833 0.36642301 2.3509886e-38
7.3231707 1.1573905 0.51682758 2.3509886e-38
7.2335973 1.1323892 0.88573539 2.3509886e-38
7.2618322 1.1314962 1.0536972 2.3509886e-38
7.3695507 1.1320257 1.2122703 2.3509886e-38
7.2089438 1.1376842 0.18589973 2.3509886e-38
7.2128692 1.1362938 0.36438739 2.3509886e-38
7.2012396 1.1332165 0.71726215 2.3509886e-38
7.235919 1.1096807 0.88521886 2.3509886e-38
7.2661414 1.1087302 1.0529407 2.3509886e-38
7.3818192 1.1090399 1.2106462 2.3509886e-38
7.2208881 1.1152004 0.18263531 2.3509886e-38
7.2190495 1.1137065 0.36279869 2.3509886e-38
7.2035508 1.110608 0.71670043 2.3509886e-38
7.2381272 1.0907508 0.8847332 2.3509886e-38
7.2683587 1.0897225 1.0525004 2.3509886e-38
7.3502927 1.0893203 1.2143166 2.3509886e-38
7.3551769 1.0995636 -0.037069559 2.3509886e-38
7.2269225 1.0963559 0.18094158 2.3509886e-38
7.2134533 1.0947145 0.36404836 2.3509886e-38
7.3573685 1.0951409 0.50913131 2.3509886e-38
7.2037864 1.0917366 0.71654677 2.3509886e-38
7.2422695 1.0705649 0.88390625 2.3509886e-38
7.2665777 1.0693966 1.0526203 2.3509886e-38
7.3584356 1.0688604 1.2131923 2.3509886e-38
7.226706 1.0776211 0.00015091896 2.3509886e-38
7.2541809 1.0764409 0.1735909 2.3509886e-38
7.2194829 1.0746142 0.3624804 2.3509886e-38
7.2852449 1.0738467 0.52460384 2.3509886e-38
7.2039833 1.0716064 0.71638286 2.3509886e-38
7.2424245 1.0477996 0.88372135 2.3509886e-38
7.2667332 1.0465567 1.0524348 2.3509886e-38
7.3288093 1.0455487 1.2165946 2.3509886e-38
7.2114973 1.054778 0.0044307709 2.3509886e-38
7.2526927 1.0521522 0.35433984 2.3509886e-38
7.2463055 1.050669 0.53287268 2.3509886e-38
7.2080655 1.0489862 0.71544433 2.3509886e-38
7.2464504 1.0263129 0.88288426 2.3509886e-38
7.2707725 1.0249991 1.0516889 2.3509886e-38
7.336833 1.0238208 1.2154605 2.3509886e-38
7.2250209 1.0334216 0.00035047531 2.3509886e-38
7.3674951 1.0310994 0.32655001 2.3509886e-38
7.2366118 1.0291134 0.53481197 2.3509886e-38
7.2120743 1.0276004 0.71451616 2.3509886e-38
7.2464685 1.007331 0.88273048 2.3509886e-38
7.2747502 1.0059583 1.0509635 2.3509886e-38
7.2231183 1.0144837 0.00075483322 2.3509886e-38
7.3298211 1.0132127 0.15305269 2.3509886e-38
7.2424946 1.0101622 0.53338993 2.3509886e-38
7.2061996 1.0086998 0.71549511 2.3509886e-38
7.2464294 0.98581821 0.88255632 2.3509886e-38
7.2786698 0.98435497 1.0502177 2.3509886e-38
7.2249999 0.99302888 2.3126602e-05 2.3509886e-38
7.3104515 0.99146742 0.1580112 2.3509886e-38
7.2994184 0.99001068 0.34260142 2.3509886e-38
7.2287717 0.98867899 0.53617597 2.3509886e-38
7.2120533 0.98729432 0.71418965 2.3509886e-38
7.2502627 0.96302009 0.88170922 2.3509886e-38
7.2765784 0.96148801 1.0503184 2.3509886e-38
7.2248888 0.97030824 -0.0001604557 2.3509886e-38
7.2504187 0.96873844 0.17374492 2.3509886e-38
7.3090286 0.96701622 0.34007478 2.3509886e-38
7.226706 0.96596175 0.53641522 2.3509886e-38
7.2099781 0.96463203 0.71438384 2.3509886e-38
7.2520871 0.94401318 0.88122439 2.3509886e-38
7.27841 0.94241339 1.0498788 2.3509886e-38
7.3484631 0.94045848 1.2133495 2.3509886e-38
7.234344 0.9513101 -0.0031049252 2.3509886e-38
7.2483377 0.94975317 0.17410505 2.3509886e-38
7.295269 0.94796276 0.34319782 2.3509886e-38
7.2265587 0.94702846 0.53626227 2.3509886e-38
7.2176867 0.94568509 0.71272123 2.3509886e-38
7.2538166 0.92119616 0.88070905 2.3509886e-38
7.2841043 0.91947132 1.0488375 2.3509886e-38
7.3462319 0.91738617 1.2134027 2.3509886e-38
7.2264204 0.92863613 -0.0010547638 2.3509886e-38
7.2287669 0.92715609 0.17905748 2.3509886e-38
7.2522502 0.92546505 0.353315 2.3509886e-38
7.2321811 0.92424774 0.53480995 2.3509886e-38
7.2076259 0.92310047 0.71442604 2.3509886e-38
7.2554741 0.89836764 0.88019395 2.3509886e-38
7.2877474 0.89652097 1.0480818 2.3509886e-38
7.3538551 0.89418447 1.2122582 2.3509886e-38
7.2414694 0.90571129 -0.0057053566 2.3509886e-38
7.2286053 0.90297621 0.35875142 2.3509886e-38
7.2299132 0.90153754 0.53505003 2.3509886e-38
7.2053499 0.9004699 0.71462119 2.3509886e-38
7.2610965 0.88053215 0.87905657 2.3509886e-38
7.2894306 0.87867254 1.0476527 2.3509886e-38
7.3535571 0.87620884 1.2121136 2.3509886e-38
7.2488565 0.8878808 -0.0080814362 2.3509886e-38
7.2706795 0.88608152 0.16743064 2.3509886e-38
7.2315745 0.88382745 0.53448462 2.3509886e-38
7.2089853 0.8827889 0.71372426 2.3509886e-38
7.2567105 0.85778582 0.87953639 2.3509886e-38
7.2870083 0.85580099 1.0477545 2.3509886e-38
7.3590646 0.8529796 1.2112088 2.3509886e-38
7.2330537 0.86537158 -0.0037965775 2.3509886e-38
7.262506 0.86336523 0.16930211 2.3509886e-38
7.233088 0.86105514 0.5338788 2.3509886e-38
7.2105098 0.86008906 0.71316457 2.3509886e-38
7.2641144 0.83606529 0.87803698 2.3509886e-38
7.2944384 0.83399016 1.0464377 2.3509886e-38
7.362545 0.83104575 1.2105539 2.3509886e-38
7.240252 0.84372401 -0.0062031746 2.3509886e-38
7.2542925 0.84196627 0.1711843 2.3509886e-38
7.3090339 0.8393153 0.33857906 2.3509886e-38
7.2326059 0.83957899 0.53370667 2.3509886e-38
7.21592 0.83854997 0.7118597 2.3509886e-38
7.2695494 0.81688881 0.87688935 2.3509886e-38
7.2959352 0.81483459 1.0459988 2.3509886e-38
7.3660283 0.8116622 1.2099198 2.3509886e-38
7.2359338 0.82484359 -0.0052380562 2.3509886e-38
7.3318763 0.81959116 0.33280361 2.3509886e-38
7.2379909 0.82048529 0.53228498 2.3509886e-38
7.205626 0.81989247 0.71359706 2.3509886e-38
7.227653 0.8035621 -0.0031754971 2.3509886e-38
7.2512774 0.80146939 0.17137349 2.3509886e-38
7.2728877 0.79519725 0.87605309 2.3509886e-38
7.2992859 0.79306549 1.0452536 2.3509886e-38
7.3713694 0.7896291 1.2090251 2.3509886e-38
7.3293223 0.79787356 0.33309805 2.3509886e-38
7.2373886 0.79899478 0.53211319 2.3509886e-38
7.2128797 0.79828024 0.71191454 2.3509886e-38
7.2780914 0.77215183 0.87487483 2.3509886e-38
7.2985725 0.7701242 1.0450703 2.3509886e-38
7.3785877 0.76621175 1.2078803 2.3509886e-38
7.2442217 0.78031015 -0.008384943 2.3509886e-38
7.2544327 0.7785511 0.17016351 2.3509886e-38
7.2528129 0.77715856 0.35118914 2.3509886e-38
7.2464499 0.77594006 0.5298146 2.3509886e-38
7.2833571 0.75288731 0.87372708 2.3509886e-38
7.3018804 0.75087321 1.0443459 2.3509886e-38
7.3799157 0.74681979 1.207486 2.3509886e-38
7.243577 0.76132655 -0.0085363388 2.3509886e-38
7.3078761 0.7577495 0.15562034 2.3509886e-38
7.3240676 0.75575817 0.33369792 2.3509886e-38
7.2438517 0.75702131 0.53008652 2.3509886e-38
7.2468648 0.75552177 0.70478034 2.3509886e-38
7.2844849 0.72992122 0.8732127 2.3509886e-38
7.3030128 0.72785032 1.0438769 2.3509886e-38
7.3830299 0.72347862 1.2068212 2.3509886e-38
7.244657 0.73847938 -0.0092766285 2.3509886e-38
7.2785301 0.73436224 0.34429419 2.3509886e-38
7.2488728 0.73403352 0.52863455 2.3509886e-38
7.2401376 0.73295867 0.70573282 2.3509886e-38
7.2916098 0.71052778 0.87173307 2.3509886e-38
7.3121419 0.70832837 1.042294 2.3509886e-38
7.3882136 0.70390469 1.2059469 2.3509886e-38
7.2439032 0.71949476 -0.0094277859 2.3509886e-38
7.2695742 0.71705335 0.16505218 2.3509886e-38
7.2777724 0.71529233 0.34414244 2.3509886e-38
7.2832751 0.71366084 0.52086091 2.3509886e-38
7.2413468 0.71391517 0.70520377 2.3509886e-38
7.2926593 0.68879819 0.87122905 2.3509886e-38
7.317152 0.68636948 1.041263 2.3509886e-38
7.3912482 0.68180537 1.2052925 2.3509886e-38
7.2698498 0.69686127 -0.017422438 2.3509886e-38
7.2783117 0.69506115 0.16231 2.3509886e-38
7.247715 0.69490886 0.35100222 2.3509886e-38
7.2843089 0.69195372 0.52026558 2.3509886e-38
7.2443566 0.69225025 0.70427668 2.3509886e-38
7.2975845 0.66687977 0.87006092 2.3509886e-38
7.3300052 0.66401565 1.0390874 2.3509886e-38
7.3981838 0.65950269 1.2041576 2.3509886e-38
7.3897276 0.66987169 -0.05280304 2.3509886e-38
7.2657433 0.67396748 0.16522336 2.3509886e-38
7.2622743 0.67268777 0.34708083 2.3509886e-38
7.3692403 0.66643727 0.50145686 2.3509886e-38
7.2512259 0.67038655 0.7025938 2.3509886e-38
7.3043509 0.64355803 0.86855066 2.3509886e-38
7.3387718 0.64049417 1.0374734 2.3509886e-38
7.2569113 0.65149307 0.16709912 2.3509886e-38
7.2747598 0.64919996 0.3436178 2.3509886e-38
7.2579656 0.64721155 0.70090044 2.3509886e-38
7.305336 0.62432444 0.86806691 2.3509886e-38
7.3318524 0.62157941 1.0381801 2.3509886e-38
7.254003 0.63257611 0.16746283 2.3509886e-38
7.2718372 0.63023889 0.34393585 2.3509886e-38
7.264833 0.62779719 0.69923723 2.3509886e-38
7.3140059 0.60210282 0.86623466 2.3509886e-38
7.2566943 0.61082804 0.16626406 2.3509886e-38
7.2726078 0.60854232 0.34329605 2.3509886e-38
7.2715068 0.60580444 0.69755387 2.3509886e-38
7.3286953 0.59992456 1.0382944 2.3509886e-38
7.3205643 0.57866096 0.86472404 2.3509886e-38
7.3333039 0.57654947 1.0372534 2.3509886e-38
7.2650347 0.58746374 0.16351199 2.3509886e-38
7.2635326 0.58612025 0.34499168 2.3509886e-38
7.3314347 0.58083582 0.50796843 2.3509886e-38
7.2760792 0.58260995 0.69623864 2.3509886e-38
7.3194098 0.55948639 0.86457288 2.3509886e-38
7.3360991 0.55710459 1.0365292 2.3509886e-38
7.2658181 0.56831336 0.16284776 2.3509886e-38
7.3109064 0.5641979 0.33311546 2.3509886e-38
7.2639408 0.56559658 0.52222586 2.3509886e-38
7.2808127 0.56319749 0.69495332 2.3509886e-38
7.3258314 0.53598237 0.8630625 2.3509886e-38
7.3504481 0.53304482 1.0340559 2.3509886e-38
7.2898107 0.54104215 0.51611233 2.3509886e-38
7.2930884 0.53944504 0.69212449 2.3509886e-38
7.3342323 0.51358342 0.86122954 2.3509886e-38
7.3470292 0.51135862 1.0341709 2.3509886e-38
7.3059311 0.51824152 0.51212704 2.3509886e-38
7.2994943 0.51727557 0.69044077 2.3509886e-38
7.3406873 0.49254864 0.85973895 2.3509886e-38
7.3574595 0.49001271 1.0322902 2.3509886e-38
7.3706179 0.49469876 0.31712043 2.3509886e-38
7.3259711 0.49635172 0.5073036 2.3509886e-38
7.305923 0.49633992 0.68876672 2.3509886e-38
7.3528891 0.46976548 0.85724068 2.3509886e-38
7.3776045 0.46660435 1.0289664 2.3509886e-38
7.3554697 0.47378504 0.32023323 2.3509886e-38
7.330255 0.47418171 0.50586104 2.3509886e-38
7.3161154 0.47380561 0.68632555 2.3509886e-38
7.3533187 0.4490754 0.85674715 2.3509886e-38
7.3898792 0.44495666 1.0267982 2.3509886e-38
7.3965845 0.45005846 0.30974853 2.3509886e-38
7.3423662 0.45268172 0.50273252 2.3509886e-38
7.3263359 0.4524858 0.68389416 2.3509886e-38
7.3654871 0.42746174 0.85425866 2.3509886e-38
7.3803821 0.42492753 1.0277838 2.3509886e-38
7.3891644 0.42983705 0.31099486 2.3509886e-38
7.3427219 0.43201423 0.50214791 2.3509886e-38
7.3364944 0.43110466 0.68146265 2.3509886e-38
7.3773799 0.40319902 0.85174966 2.3509886e-38
7.3804851 0.40157318 1.0273156 2.3509886e-38
7.3544979 0.40783405 0.49899888 2.3509886e-38
7.3561668 0.40630639 0.67711771 2.3509886e-38
7.3893037 0.38014615 0.84925044 2.3509886e-38
7.3924575 0.37850618 1.0251373 2.3509886e-38
7.3740945 0.38421023 0.49416292 2.3509886e-38
7.3641238 0.38364965 0.67505383 2.3509886e-38
7.3956776 0.36158794 0.48891199 2.3509886e-38
7.3819065 0.36138153 0.67110646 2.3509886e-38
7.395659 0.33945727 0.48831701 2.3509886e-38
7.3936372 0.33824199 0.66828465 2.3509886e-38
7.4971671 4.1937571 -0.034519672 2.3509886e-38
7.5054574 4.1740999 -0.034708738 2.3509886e-38
7.5183582 4.1532912 -0.035936356 2.3509886e-38
7.5294161 4.1316915 -0.03665781 2.3509886e-38
7.5255642 4.1054668 -0.03331089 2.3509886e-38
7.5532246 4.0812187 0.95128834 2.3509886e-38
7.5400653 4.0853004 -0.035046101 2.3509886e-38
7.4489999 4.0114403 0.9683553 2.3509886e-38
7.5532517 4.0630283 -0.036286831 2.3509886e-38
7.5611992 4.0432243 -0.036475658 2.3509886e-38
7.5773311 4.0236225 -0.038718224 2.3509886e-38
7.52737 3.1612761 1.1744806 2.3509886e-38
7.4473791 3.115813 1.1848534 2.3509886e-38
7.5165782 2.7834673 1.3665891 2.3509886e-38
7.4678421 2.7471375 1.3716719 2.3509886e-38
7.4241767 2.7150662 1.3762136 2.3509886e-38
7.5920706 2.2726247 1.5446473 2.3509886e-38
7.509408 2.2345235 1.5507743 2.3509886e-38
7.4403677 2.1991768 1.555898 2.3509886e-38
7.4196229 2.1772375 1.5574689 2.3509886e-38
7.4252415 2.1542234 1.5571227 2.3509886e-38
7.4185634 2.1319747 1.5576642 2.3509886e-38
7.4216833 2.1112494 1.557485 2.3509886e-38
7.4192023 2.0870552 1.5577164 2.3509886e-38
7.4039383 2.09883 -0.065534353 2.3509886e-38
7.4265165 2.0643024 1.5572268 2.3509886e-38
7.4283676 2.0222557 1.5571585 2.3509886e-38
7.4035778 2.0327857 -0.063311577 2.3509886e-38
7.4410653 2.0028353 1.556258 2.3509886e-38
7.4025769 2.0115657 -0.062377214 2.3509886e-38
7.4380617 1.9799662 1.5565021 2.3509886e-38
7.4131103 1.9905933 -0.06479001 2.3509886e-38
7.4389453 1.9576333 1.5564575 2.3509886e-38
7.4121552 1.9680741 -0.063866615 2.3509886e-38
7.443882 1.9345016 1.5561128 2.3509886e-38
7.4170103 1.9450028 -0.064622402 2.3509886e-38
7.432591 1.9120055 1.5569477 2.3509886e-38
7.4119453 1.9233162 -0.062574625 2.3509886e-38
7.4291544 1.8905295 1.5572046 2.3509886e-38
7.4182601 1.9030581 -0.063863754 2.3509886e-38
7.4338827 1.8674117 1.5568608 2.3509886e-38
7.4305439 1.8808558 -0.066844225 2.3509886e-38
7.4280419 1.8483353 1.5572853 2.3509886e-38
7.4249983 1.8617928 -0.064774036 2.3509886e-38
7.4326386 1.8252103 1.556942 2.3509886e-38
7.4295225 1.8386544 -0.06552887 2.3509886e-38
7.4370246 1.803363 1.5566096 2.3509886e-38
7.4300165 1.8163749 -0.065159798 2.3509886e-38
7.4390907 1.7838858 1.5564444 2.3509886e-38
7.4320822 1.796901 -0.06532526 2.3509886e-38
7.4335656 1.7596949 1.5568264 2.3509886e-38
7.4306722 1.7731273 -0.064409971 2.3509886e-38
7.4416003 1.7395208 1.5562155 2.3509886e-38
7.4327531 1.7523532 -0.064585686 2.3509886e-38
7.4396534 1.718349 1.55633 2.3509886e-38
7.4443345 1.7325139 -0.067544222 2.3509886e-38
7.4418592 1.694968 1.5561326 2.3509886e-38
7.4388947 1.7083714 -0.06551528 2.3509886e-38
7.4478478 1.6732388 1.5556561 2.3509886e-38
7.4447374 1.6866274 -0.066815138 2.3509886e-38
7.4495735 1.6537337 1.5554919 2.3509886e-38
7.4426365 1.6667724 -0.065865755 2.3509886e-38
7.4494801 1.6314541 1.5554513 2.3509886e-38
7.44453 1.6446646 -0.066051722 2.3509886e-38
7.457377 1.6085292 1.5548186 2.3509886e-38
7.4445491 1.6210907 -0.065691471 2.3509886e-38
7.4499331 1.6018887 -0.066969156 2.3509886e-38
7.4589329 1.5889995 1.5546548 2.3509886e-38
7.4647107 1.56586 1.5541675 2.3509886e-38
7.4498167 1.5783091 -0.066608429 2.3509886e-38
7.4684267 1.5425456 1.5538257 2.3509886e-38
7.4496255 1.5547358 -0.066247463 2.3509886e-38
7.4678202 1.5228477 1.5538077 2.3509886e-38
7.4452586 1.5347984 -0.064739466 2.3509886e-38
7.4713159 1.5008163 1.5534773 2.3509886e-38
7.4486766 1.5128154 -0.065480947 2.3509886e-38
7.4747462 1.4787691 1.5531468 2.3509886e-38
7.4501133 1.4906905 -0.065665483 2.3509886e-38
7.4739714 1.4590719 1.5531296 2.3509886e-38
7.4589949 1.4716496 -0.06805706 2.3509886e-38
7.4912181 1.4378203 1.5517793 2.3509886e-38
7.4545569 1.4491477 -0.066569328 2.3509886e-38
7.490551 1.4141684 1.5517296 2.3509886e-38
7.453958 1.4255934 -0.066206694 2.3509886e-38
7.4569187 1.4061625 -0.066925764 2.3509886e-38
7.4935899 1.3946574 1.5514212 2.3509886e-38
7.5027475 1.371503 1.5506425 2.3509886e-38
7.4504299 1.3823167 -0.064890623 2.3509886e-38
7.5077887 1.3494208 1.5501665 2.3509886e-38
7.4591532 1.360558 -0.067303419 2.3509886e-38
7.5106583 1.3298475 1.5498581 2.3509886e-38
7.458107 1.3409215 -0.066907406 2.3509886e-38
7.5155768 1.3077197 1.5493821 2.3509886e-38
7.4609523 1.3188512 -0.067647696 2.3509886e-38
7.5164924 1.2841021 1.5491874 2.3509886e-38
7.4580235 1.295235 -0.066726208 2.3509886e-38
7.519237 1.2631761 1.5488685 2.3509886e-38
7.4587698 1.2743864 -0.066897631 2.3509886e-38
7.5199714 1.24086 1.5486851 2.3509886e-38
7.4614186 1.2522974 -0.067637444 2.3509886e-38
7.4416156 1.2485762 0.30960035 2.3509886e-38
7.5285773 1.2200878 1.5479279 2.3509886e-38
7.456286 1.2312607 -0.066135406 2.3509886e-38
7.4130859 1.2268848 0.31644404 2.3509886e-38
7.4587736 1.2104713 -0.066864014 2.3509886e-38
7.5251622 1.198953 1.5480479 2.3509886e-38
7.5257363 1.1753058 1.5478542 2.3509886e-38
7.4612622 1.1870625 -0.067614079 2.3509886e-38
7.5341868 1.1531329 1.5470862 2.3509886e-38
7.4655728 1.1649865 -0.068911076 2.3509886e-38
7.5345726 1.1320883 1.5469143 2.3509886e-38
7.464035 1.1440802 -0.068523645 2.3509886e-38
7.4584069 1.1394461 0.48750377 2.3509886e-38
7.5309472 1.1083544 1.547014 2.3509886e-38
7.4624753 1.120576 -0.068157196 2.3509886e-38
7.4489942 1.1158451 0.48942554 2.3509886e-38
7.5351825 1.0886806 1.5465604 2.3509886e-38
7.4269381 1.0680722 1.3806961 2.3509886e-38
7.5393772 1.0676692 1.5460961 2.3509886e-38
7.4111724 1.0446364 1.3820491 2.3509886e-38
7.5395389 1.043978 1.5459037 2.3509886e-38
7.4172263 1.0226583 1.3812919 2.3509886e-38
7.5416174 1.0216082 1.5455754 2.3509886e-38
7.5416365 1.0018599 1.5454153 2.3509886e-38
7.5475793 0.97946209 1.544794 2.3509886e-38
7.4151006 0.95792228 1.3809607 2.3509886e-38
7.5474634 0.95574552 1.5446022 2.3509886e-38
7.4209218 0.93845427 1.3802247 2.3509886e-38
7.557282 0.93589747 1.5437086 2.3509886e-38
7.4186826 0.91515672 1.3802298 2.3509886e-38
7.5570292 0.91215056 1.5435171 2.3509886e-38
7.4183612 0.8918435 1.3800421 2.3509886e-38
7.5646796 0.88828683 1.5427382 2.3509886e-38
7.4280124 0.87354237 1.3789303 2.3509886e-38
7.57235 0.86966169 1.5420017 2.3509886e-38
7.4315405 0.85011977 1.3783562 2.3509886e-38
7.5698948 0.8459084 1.5419576 2.3509886e-38
7.4350257 0.82797176 1.3777926 2.3509886e-38
7.5713854 0.82339722 1.5416303 2.3509886e-38
7.4444842 0.80824518 1.3766699 2.3509886e-38
7.5808549 0.8033129 1.540736 2.3509886e-38
7.447845 0.78603673 1.3761064 2.3509886e-38
7.4663496 0.74244452 1.3738289 2.3509886e-38
7.5032802 0.7175597 1.3699646 2.3509886e-38
7.5001845 0.72776031 0.10403466 2.3509886e-38
7.4816651 0.67650509 1.3715675 2.3509886e-38
7.4030046 0.63596064 1.2032526 2.3509886e-38
7.4634056 0.64305687 -0.074785709 2.3509886e-38
7.5125885 0.63627601 0.46992564 2.3509886e-38
7.4059725 0.61636782 1.2026186 2.3509886e-38
7.4508924 0.62407988 -0.071586609 2.3509886e-38
7.5076714 0.61679417 0.47061718 2.3509886e-38
7.453527 0.60174721 -0.072879791 2.3509886e-38
7.4127107 0.59395254 1.2014836 2.3509886e-38
7.4713306 0.59640151 0.47806752 2.3509886e-38
7.4173222 0.57031322 1.2005787 2.3509886e-38
7.4579353 0.57798433 -0.07474184 2.3509886e-38
7.4220986 0.55052841 1.1997042 2.3509886e-38
7.4548421 0.55855489 -0.074337006 2.3509886e-38
7.4364786 0.52619433 1.197597 2.3509886e-38
7.4476132 0.53547204 -0.072844028 2.3509886e-38
7.5287204 0.5274508 0.27992725 2.3509886e-38
7.4499822 0.51310396 -0.074136496 2.3509886e-38
7.5136614 0.50598919 0.28303528 2.3509886e-38
7.4504604 0.49215013 -0.074859142 2.3509886e-38
7.5032873 0.45612478 1.1884261 2.3509886e-38
7.4526992 0.46975166 -0.076151609 2.3509886e-38
7.5729938 0.4297989 1.1795994 2.3509886e-38
7.4530554 0.44877928 -0.076873779 2.3509886e-38
7.5555158 0.40988177 1.1813593 2.3509886e-38
7.4437795 0.42853564 -0.074799538 2.3509886e-38
7.4514623 0.40436459 -0.077779055 2.3509886e-38
7.4027948 0.40536177 0.30705845 2.3509886e-38
7.5912008 0.38308328 1.1766002 2.3509886e-38
7.4419556 0.38287085 -0.075714111 2.3509886e-38
7.4222665 0.3816061 0.3017236 2.3509886e-38
7.4032335 0.35813934 0.84642804 2.3509886e-38
7.4143319 0.35579914 1.0215344 2.3509886e-38
7.4439802 0.36174238 -0.076995373 2.3509886e-38
7.4708304 0.35652679 0.28935647 2.3509886e-38
7.4228735 0.33422595 0.84259701 2.3509886e-38
7.436264 0.34014541 -0.075488329 2.3509886e-38
7.5211287 0.32968515 0.2765075 2.3509886e-38
7.4543405 0.31039995 0.83677852 2.3509886e-38
7.4676032 0.30778801 1.012882 2.3509886e-38
7.4343429 0.31936109 -0.075649977 2.3509886e-38
7.5241466 0.30677801 0.45972967 2.3509886e-38
7.4249711 0.31451511 0.66168451 2.3509886e-38
7.4935842 0.28564417 0.82962787 2.3509886e-38
7.432364 0.29858226 -0.075811386 2.3509886e-38
7.4699144 0.28930593 0.65243101 2.3509886e-38
7.5777578 0.25490981 0.81480932 2.3509886e-38
7.4263759 0.27688307 -0.074862957 2.3509886e-38
7.4240122 0.25353253 -0.075043678 2.3509886e-38
7.4315362 0.23309392 -0.077992678 2.3509886e-38
7.4156699 0.21114904 -0.074254274 2.3509886e-38
7.7000017 2.8724804 1.3480724 2.3509886e-38
7.6006408 2.8258502 1.3580842 2.3509886e-38
7.7478042 2.4130244 1.5328085 2.3509886e-38
7.6910801 2.3791103 1.5370624 2.3509886e-38
7.6558337 2.3493545 1.5397382 2.3509886e-38
7.6185131 2.3194795 1.5425601 2.3509886e-38
7.6064229 2.2955151 1.5435256 2.3509886e-38
7.6759238 0.77804869 1.533493 2.3509886e-38
7.7509289 0.75150108 1.5277069 2.3509886e-38
7.7641935 0.73072153 1.5265143 2.3509886e-38
7.7824168 0.68519151 1.5246849 2.3509886e-38
7.7900925 0.45712614 1.3387703 2.3509886e-38
7.6644955 0.35421914 1.1672753 2.3509886e-38
7.7773638 0.32282096 1.1531416 2.3509886e-38
7.9035168 3.3681648 1.1257885 2.3509886e-38
7.8784599 3.3127797 1.1300759 2.3509886e-38
7.8101144 3.2768652 -0.040032864 2.3509886e-38
7.8201103 3.256098 -0.041249752 2.3509886e-38
7.8263311 3.2342308 -0.041449308 2.3509886e-38
7.8276725 3.208034 -0.040146828 2.3509886e-38
7.8471789 3.1884146 -0.043921471 2.3509886e-38
7.8472428 3.1662996 -0.042581558 2.3509886e-38
7.8576865 3.1426311 -0.043823719 2.3509886e-38
7.8617234 3.1201556 -0.043513775 2.3509886e-38
7.8544831 3.0946841 -0.040148258 2.3509886e-38
7.8740625 3.0734229 -0.043936729 2.3509886e-38
7.8722863 3.0494564 -0.042098522 2.3509886e-38
7.8798027 3.0279262 -0.042806149 2.3509886e-38
7.8879542 3.0036142 -0.043539047 2.3509886e-38
7.8915939 2.9810877 -0.043228149 2.3509886e-38
7.831357 2.9305038 1.3348796 2.3509886e-38
7.9008012 2.9599533 -0.044445753 2.3509886e-38
7.9068651 2.9350996 -0.044668674 2.3509886e-38
7.912189 2.9129913 -0.0448668 2.3509886e-38
7.9174519 2.8908682 -0.045064926 2.3509886e-38
7.9214153 2.865519 -0.04477787 2.3509886e-38
7.9227781 2.8424942 -0.043956757 2.3509886e-38
7.9300427 2.8193896 -0.044676304 2.3509886e-38
7.9369302 2.7976441 -0.045383692 2.3509886e-38
7.9440651 2.7744868 -0.046103477 2.3509886e-38
7.9394975 2.7501936 -0.04375124 2.3509886e-38
7.9543514 2.7272711 -0.046523094 2.3509886e-38
7.9609857 2.7054362 -0.047230244 2.3509886e-38
7.9637761 2.6827779 -0.0469172 2.3509886e-38
7.9702888 2.6609063 -0.04762435 2.3509886e-38
7.9751296 2.637229 -0.047833443 2.3509886e-38
7.976109 2.6127706 -0.047022104 2.3509886e-38
7.9753919 2.58655 -0.045712471 2.3509886e-38
7.9754071 2.5662942 -0.044863462 2.3509886e-38
7.9938436 2.5301008 1.514457 2.3509886e-38
7.9764361 2.5404744 -0.04406333 2.3509886e-38
7.9103761 2.4883752 1.5206971 2.3509886e-38
7.9868813 2.5164676 -0.045814991 2.3509886e-38
7.8183761 2.4484687 1.5275404 2.3509886e-38
7.9967384 2.4952035 -0.047542095 2.3509886e-38
7.9970303 2.4721458 -0.046717167 2.3509886e-38
7.9956031 2.4473567 -0.04539299 2.3509886e-38
7.8091373 0.70459133 1.5229323 2.3509886e-38
7.8073397 0.660972 1.5225854 2.3509886e-38
7.8282018 0.63678646 1.5207798 2.3509886e-38
7.8568892 0.61070919 1.5183728 2.3509886e-38
7.8777413 0.58899349 1.5165873 2.3509886e-38
7.9103289 0.56374919 1.5138938 2.3509886e-38
7.9629335 0.23796105 1.1292536 2.3509886e-38
7.9440651 0.21742219 0.94251978 2.3509886e-38
7.9467835 0.21569359 1.1307573 2.3509886e-38
7.8292966 0.20387042 0.9586885 2.3509886e-38
7.9442558 0.19072205 1.1305642 2.3509886e-38
7.8537726 0.18204015 0.76685965 2.3509886e-38
7.8094444 0.1852147 0.96111369 2.3509886e-38
7.9420896 0.1699186 1.1304034 2.3509886e-38
7.8707385 0.15525234 0.76333904 2.3509886e-38
7.8028812 0.16109598 0.96149862 2.3509886e-38
7.9571843 0.14304864 1.1280406 2.3509886e-38
7.8348422 0.13556641 0.76882076 2.3509886e-38
7.8534479 0.13206661 0.95356619 2.3509886e-38
7.9210358 0.12314725 1.1319585 2.3509886e-38
7.8196564 0.11506057 0.95800364 2.3509886e-38
7.9285569 0.10128671 1.1305928 2.3509886e-38
7.8670521 0.087480128 0.76215482 2.3509886e-38
7.8366294 0.08956784 0.95495248 2.3509886e-38
7.9435811 0.07569164 1.1282408 2.3509886e-38
7.85532 0.062360525 0.95160306 2.3509886e-38
7.9208994 0.053087413 1.1304622 2.3509886e-38
7.8290691 0.043298304 0.95488298 2.3509886e-38
7.9241147 0.030239522 1.1295686 2.3509886e-38
7.8302693 0.020937443 0.9541409 2.3509886e-38
7.9784832 0.00095242262 1.1223991 2.3509886e-38
7.8057075 0.00046300888 0.95712531 2.3509886e-38
8.0995665 3.5818026 1.0975442 2.3509886e-38
8.080204 3.5507939 1.1006149 2.3509886e-38
8.0493584 3.5163579 1.1050929 2.3509886e-38
8.0534029 3.4898744 1.1053284 2.3509886e-38
8.1096811 3.482482 1.0990264 2.3509886e-38
8.0671387 3.444839 1.1049142 2.3509886e-38
8.0968847 0.39957261 -0.061840773 2.3509886e-38
8.0970545 0.37679523 -0.062532663 2.3509886e-38
8.089221 0.35180056 -0.061187744 2.3509886e-38
8.0872107 0.32778019 -0.06137538 2.3509886e-38
8.0929556 0.30451649 -0.063610077 2.3509886e-38
8.0908041 0.28048521 -0.063796997 2.3509886e-38
8.1192532 0.24588752 1.1106364 2.3509886e-38
8.0906391 0.25769699 -0.064487696 2.3509886e-38
8.0788651 0.23599565 -0.062088966 2.3509886e-38
8.0822821 0.21144342 -0.063819408 2.3509886e-38
8.07971 0.18603283 -0.064016104 2.3509886e-38
8.0925226 0.18011874 0.53043854 2.3509886e-38
8.0755825 0.16506237 -0.063664436 2.3509886e-38
8.0688295 0.16115522 0.5344435 2.3509886e-38
8.0805511 0.13885379 -0.06592083 2.3509886e-38
