# .PCD v0.7 - Point Cloud Data file format
VERSION 0.7
FIELDS x y z rgb
SIZE 4 4 4 4
TYPE F F F F
COUNT 1 1 1 1
WIDTH 138
HEIGHT 1
VIEWPOINT 0 0 0 1 0 0 0
POINTS 138
DATA ascii
3.2809772 14.77529 0.21151853 2.3418409e-38
3.2882528 14.636933 0.22902143 2.3418409e-38
3.3016157 14.684719 0.55402482 2.3418409e-38
3.2933719 14.492866 0.24732077 2.3418409e-38
3.2882044 14.310386 0.270913 2.3418409e-38
3.2958698 14.334083 0.59116209 2.3418409e-38
3.3683829 14.286169 0.27098572 2.3418409e-38
3.3693621 14.282837 0.59420002 2.3418409e-38
3.3509402 14.07373 0.29883301 2.3418409e-38
3.3512497 14.067904 0.61738086 2.3418409e-38
3.3765035 14.003637 0.30680251 2.3418409e-38
3.3782511 14.00342 0.6232661 2.3418409e-38
3.3698924 13.812727 0.3314451 2.3418409e-38
3.3765488 13.831231 0.6413914 2.3418409e-38
3.2058532 13.651985 0.04897213 2.3418409e-38
3.2340171 13.624391 0.051889896 2.3418409e-38
3.272119 13.608408 0.052596569 2.3418409e-38
3.386903 13.750793 0.33867621 2.3418409e-38
3.3874364 13.746076 0.64995468 2.3418409e-38
3.3116596 13.598044 0.052370548 2.3418409e-38
3.342391 13.589896 0.052194118 2.3418409e-38
3.3803341 13.573588 0.052898645 2.3418409e-38
3.3841581 13.581178 0.36041558 2.3418409e-38
3.3845425 13.576019 0.66786909 2.3418409e-38
3.3995636 13.490726 0.37131834 2.3418409e-38
3.2149243 9.5234041 0.0021584034 2.3418409e-38
3.2429211 9.5210924 0.00019431114 2.3418409e-38
3.2674394 9.5095921 0.00047445297 2.3418409e-38
3.2919893 9.4938097 0.0016417503 2.3418409e-38
3.3126912 9.4857216 0.001502037 2.3418409e-38
3.3407083 9.4788771 0.00042366982 2.3418409e-38
3.3819685 9.5797319 0.19959414 2.3418409e-38
3.3884389 9.5923128 0.41917014 2.3418409e-38
3.36292 9.4616604 0.0020489693 2.3418409e-38
3.3849277 9.5132113 0.21193552 2.3418409e-38
3.3971491 9.5401516 0.42723334 2.3418409e-38
3.3864877 9.4522171 0.0018877983 2.3418409e-38
3.3993068 9.408185 0.23057747 2.3418409e-38
3.3672569 9.3252306 0.46522355 2.3418409e-38
3.3923225 9.2426357 0.69156623 2.3418409e-38
3.3946695 9.2555771 0.25971401 2.3418409e-38
3.3804755 9.1491785 0.70576727 2.3418409e-38
3.3462079 9.0700989 0.5091517 2.3418409e-38
3.3916452 9.1081181 0.71090674 2.3418409e-38
3.3678162 8.9993267 0.31013012 2.3418409e-38
3.3621302 8.9823456 0.52245569 2.3418409e-38
3.3301702 8.7768955 0.35503733 2.3418409e-38
3.3357763 8.7300014 0.1585387 2.3418409e-38
3.3406966 8.7346954 0.56496429 2.3418409e-38
3.3266599 8.6574631 0.17458463 2.3418409e-38
3.3479161 8.703043 0.36726642 2.3418409e-38
3.3556318 8.717474 0.56662297 2.3418409e-38
3.3253789 8.58568 0.1896863 2.3418409e-38
3.299444 8.5232601 0.40507281 2.3418409e-38
3.3367023 8.4975147 0.20691574 2.3418409e-38
3.3568304 8.5362749 0.59625733 2.3418409e-38
3.3641808 8.4958649 0.20449793 2.3418409e-38
3.3893704 8.499445 0.20120859 2.3418409e-38
3.3787704 8.4727859 0.40728986 2.3418409e-38
3.418612 13.567295 0.052061558 2.3418409e-38
3.4030015 13.496854 0.67552471 2.3418409e-38
3.4584556 13.566599 0.050291538 2.3418409e-38
3.4907691 13.555579 0.050410509 2.3418409e-38
3.5274665 13.53502 0.051733494 2.3418409e-38
3.5640075 13.539026 0.049364805 2.3418409e-38
3.4390016 13.214374 0.40484583 2.3418409e-38
3.437434 13.202571 0.70507562 2.3418409e-38
3.4242964 13.041329 0.4274354 2.3418409e-38
3.4382856 12.941834 0.73223126 2.3418409e-38
3.4393899 12.812077 0.45586467 2.3418409e-38
3.4490592 12.839343 0.74251318 2.3418409e-38
3.4775538 12.699542 0.46845543 2.3418409e-38
3.4428561 12.588595 0.19741738 2.3418409e-38
3.4473312 12.486195 0.21246016 2.3418409e-38
3.4611437 12.526488 0.49105096 2.3418409e-38
3.4581406 12.406551 0.22377348 2.3418409e-38
3.4668119 12.4295 0.50304949 2.3418409e-38
3.4809256 12.360329 0.229478 2.3418409e-38
3.5019839 12.198634 0.25241148 2.3418409e-38
3.4952726 12.171734 0.5342617 2.3418409e-38
3.4842768 12.015147 0.55446601 2.3418409e-38
3.5230765 11.930664 0.29102051 2.3418409e-38
3.5103834 11.88606 0.569471 2.3418409e-38
3.4796052 11.6872 0.32941151 2.3418409e-38
3.484302 11.696519 0.59447312 2.3418409e-38
3.525455 11.620071 0.3368094 2.3418409e-38
3.502667 11.546435 0.61239779 2.3418409e-38
3.5016432 11.444709 0.36400843 2.3418409e-38
3.4207449 11.309594 0.12708402 2.3418409e-38
3.4531462 11.304976 0.12581909 2.3418409e-38
3.5128422 11.370016 0.37438762 2.3418409e-38
3.5243194 11.399023 0.62977564 2.3418409e-38
3.489238 11.305238 0.12346959 2.3418409e-38
3.5373862 11.353291 0.3754611 2.3418409e-38
3.529058 11.324098 0.6388942 2.3418409e-38
3.516798 11.297911 0.1229409 2.3418409e-38
3.5635369 11.329659 0.37744546 2.3418409e-38
3.5447223 11.279969 0.12417674 2.3418409e-38
3.5072527 11.161784 0.66020429 2.3418409e-38
3.5315616 11.133704 0.40807366 2.3418409e-38
3.5097539 11.066471 0.67194915 2.3418409e-38
3.4915059 11.02347 0.17117167 2.3418409e-38
3.4865069 10.91076 0.69248295 2.3418409e-38
3.4561481 10.833587 0.2056812 2.3418409e-38
3.4915929 10.837457 0.70133495 2.3418409e-38
3.4605336 10.758966 0.21802211 2.3418409e-38
3.479634 10.706997 0.71813583 2.3418409e-38
3.4665782 10.679483 0.23105836 2.3418409e-38
3.4878247 10.655575 0.72409189 2.3418409e-38
3.4205487 10.555396 0.010667801 2.3418409e-38
3.4431801 10.545148 0.010919571 2.3418409e-38
3.4865375 10.562349 0.4943974 2.3418409e-38
3.4737659 10.536101 0.010320425 2.3418409e-38
3.4948938 10.589681 0.2443012 2.3418409e-38
3.5013175 10.523892 0.010538578 2.3418409e-38
3.5271702 10.51222 0.010767221 2.3418409e-38
3.5546401 10.499857 0.010984182 2.3418409e-38
3.5811064 10.489873 0.010808229 2.3418409e-38
3.4472096 10.37241 0.28418767 2.3418409e-38
3.4466352 10.290779 0.29797077 2.3418409e-38
3.486588 10.309504 0.53125942 2.3418409e-38
3.413434 10.118323 0.32928097 2.3418409e-38
3.4504092 10.135233 0.55883598 2.3418409e-38
3.4433956 10.039636 0.34038615 2.3418409e-38
3.4045105 9.8585443 0.37349808 2.3418409e-38
3.420892 9.8184357 0.37903953 2.3418409e-38
3.4287882 9.7752123 0.38569701 2.3418409e-38
3.4130783 9.5072298 0.65213096 2.3418409e-38
3.4064579 9.4982538 0.21298456 2.3418409e-38
3.4260721 9.5433998 0.42456365 2.3418409e-38
3.4100394 9.4384947 0.0026144981 2.3418409e-38
3.4372141 9.4295216 0.0019826889 2.3418409e-38
3.4592102 9.4162664 0.0027186871 2.3418409e-38
3.4841428 9.4101534 0.001657486 2.3418409e-38
3.4045424 9.2759533 0.47061574 2.3418409e-38
3.5052731 9.3907652 0.0037300587 2.3418409e-38
3.5302064 9.3887253 0.0017795563 2.3418409e-38
3.5549655 9.3739824 0.0024933815 2.3418409e-38
