# .PCD v0.7 - Point Cloud Data file format
VERSION 0.7
FIELDS x y z rgb
SIZE 4 4 4 4
TYPE F F F F
COUNT 1 1 1 1
WIDTH 228
HEIGHT 1
VIEWPOINT 0 0 0 1 0 0 0
POINTS 228
DATA ascii
3.5970054 -6.3699417 0.079993963 1.8874076e-38
3.5741844 -6.3853488 0.079028845 1.8874076e-38
3.5757403 -6.3887 0.27910805 1.8874076e-38
3.5535638 -6.3888273 0.080457926 1.8874076e-38
3.5294471 -6.3982239 0.080929518 1.8874076e-38
3.5644104 -6.4115086 0.27563727 1.8874076e-38
3.5469482 -6.4350252 0.27259851 1.8874076e-38
3.5090945 -6.4121947 0.07996726 1.8874076e-38
3.5340195 -6.4649482 0.26782835 1.8874076e-38
3.4896355 -6.4213753 0.07996273 1.8874076e-38
3.5277197 -6.5024624 0.26089358 1.8874076e-38
3.4682345 -6.43997 0.078044415 1.8874076e-38
3.5118473 -6.5336075 0.25612402 1.8874076e-38
3.4519663 -6.4560919 0.076127529 1.8874076e-38
3.5043786 -6.5693707 0.24962354 1.8874076e-38
3.4310865 -6.4657226 0.076124668 1.8874076e-38
3.4140079 -6.490624 0.072295189 1.8874076e-38
3.791429 -6.2806177 0.078174829 1.8874076e-38
3.7640297 -6.2838893 0.08055234 1.8874076e-38
3.7709942 -6.2975984 0.27789748 1.8874076e-38
3.7432401 -6.2967739 0.080061674 1.8874076e-38
3.7492824 -6.308774 0.27788484 1.8874076e-38
3.7943523 -6.3968544 0.45740664 1.8874076e-38
3.7240822 -6.3065677 0.080050945 1.8874076e-38
3.7300971 -6.3185811 0.27787435 1.8874076e-38
3.7704856 -6.398037 0.45933437 1.8874076e-38
3.6993062 -6.3147874 0.080995798 1.8874076e-38
3.7043979 -6.3250561 0.27916169 1.8874076e-38
3.6727195 -6.3129616 0.084333897 1.8874076e-38
3.6795061 -6.3266654 0.28131723 1.8874076e-38
3.6513717 -6.3214712 0.084802866 1.8874076e-38
3.6633487 -6.3456664 0.27914226 1.8874076e-38
3.6360536 -6.3485932 0.080487728 1.8874076e-38
3.6376104 -6.3519092 0.28043163 1.8874076e-38
3.6171858 -6.3622236 0.079522848 1.8874076e-38
3.6153033 -6.3585515 0.28128946 1.8874076e-38
3.6002705 -6.376781 0.27911651 1.8874076e-38
3.7894752 -6.4355087 0.65293682 1.8874076e-38
3.7892501 -6.4352765 0.85176539 1.8874076e-38
3.7940919 -6.4449863 1.0477986 1.8874076e-38
3.7633932 -6.4421167 0.65394974 1.8874076e-38
3.7613788 -6.4383316 0.8532325 1.8874076e-38
3.7743661 -6.4644113 1.2449056 1.8874076e-38
3.7813268 -6.4783726 1.4394375 1.8874076e-38
3.7871478 -6.4900804 1.634122 1.8874076e-38
3.7954586 -6.5067139 1.8302034 1.8874076e-38
3.7524974 -6.4203691 0.4569962 1.8874076e-38
3.7372582 -6.4420452 0.65598953 1.8874076e-38
3.7387898 -6.4452839 0.85381401 1.8874076e-38
3.7471259 -6.4620709 1.0485257 1.8874076e-38
3.7552743 -6.4784865 1.2444885 1.8874076e-38
3.7657824 -6.4995999 1.4384843 1.8874076e-38
3.7724795 -6.513123 1.6333358 1.8874076e-38
3.7816515 -6.5315776 1.8296802 1.8874076e-38
3.7878606 -6.5441294 2.0252774 1.8874076e-38
3.7185166 -6.4045343 0.46280122 1.8874076e-38
3.7181885 -6.4559937 0.65529668 1.8874076e-38
3.7214875 -6.4627876 0.85262108 1.8874076e-38
3.7306778 -6.4813948 1.0472667 1.8874076e-38
3.7387965 -6.4978547 1.2434618 1.8874076e-38
3.7528186 -6.5261517 1.43706 1.8874076e-38
3.7577121 -6.5361428 1.6325501 1.8874076e-38
3.7704113 -6.561789 1.8289651 1.8874076e-38
3.7819483 -6.5851045 2.0249665 1.8874076e-38
3.7021668 -6.4236851 0.46085322 1.8874076e-38
3.6964583 -6.4711857 0.654603 1.8874076e-38
3.6979933 -6.4744558 0.85261083 1.8874076e-38
3.7097697 -6.498425 1.0465068 1.8874076e-38
3.7249067 -6.5291891 1.241214 1.8874076e-38
3.7353287 -6.5504208 1.4359496 1.8874076e-38
3.741091 -6.5622344 1.6316531 1.8874076e-38
3.6840057 -6.445848 0.45851696 1.8874076e-38
3.6798935 -6.4903364 0.65288615 1.8874076e-38
3.6814396 -6.4936419 0.85112298 1.8874076e-38
3.6966674 -6.5247951 1.0442495 1.8874076e-38
3.7099891 -6.5520697 1.2397817 1.8874076e-38
3.7256434 -6.5840931 1.433898 1.8874076e-38
3.6735446 -6.4772549 0.45385611 1.8874076e-38
3.6706126 -6.5212097 0.64877844 1.8874076e-38
3.6739283 -6.5281525 0.8469733 1.8874076e-38
3.6873765 -6.5558562 1.0412434 1.8874076e-38
3.7032764 -6.5885863 1.2367232 1.8874076e-38
3.6608071 -6.5009675 0.45074737 1.8874076e-38
3.654197 -6.5510955 0.6453526 1.8874076e-38
3.6652815 -6.5741372 0.84134305 1.8874076e-38
3.6427069 -6.5272145 0.4476372 1.8874076e-38
3.6493719 -6.588429 0.63987947 1.8874076e-38
3.6463811 -6.5820804 0.43755114 1.8874076e-38
3.7634714 -6.6076417 1.8277365 1.8874076e-38
3.7847023 -6.6507258 2.024425 1.8874076e-38
3.7349167 -6.603126 1.62976 1.8874076e-38
3.7642405 -6.6629786 1.8261248 1.8874076e-38
3.7302458 -6.6439977 1.4294895 1.8874076e-38
3.7403867 -6.6649265 1.6265378 1.8874076e-38
3.683017 -6.6109228 1.0352374 1.8874076e-38
3.7040691 -6.654563 1.230612 1.8874076e-38
3.7248342 -6.6976123 1.4258657 1.8874076e-38
3.6655989 -6.6222978 0.8348279 1.8874076e-38
3.6919084 -6.677134 1.027235 1.8874076e-38
3.6534772 -6.658565 0.62859607 1.8874076e-38
3.6512253 -6.6537261 0.42436242 1.8874076e-38
3.6469305 -6.7035575 0.41582704 1.8874076e-38
3.9910126 -6.2442222 0.062996626 1.8874076e-38
3.9607301 -6.2431164 0.066803455 1.8874076e-38
3.9395156 -6.2524619 0.067265034 1.8874076e-38
3.9120531 -6.256278 0.069638491 1.8874076e-38
3.9397271 -6.3079014 0.25849545 1.8874076e-38
3.893563 -6.270618 0.06866622 1.8874076e-38
3.9100461 -6.3016801 0.26281071 1.8874076e-38
3.8795834 -6.2934837 0.065303564 1.8874076e-38
3.8831816 -6.3005214 0.26582742 1.8874076e-38
3.8493474 -6.2919197 0.069113731 1.8874076e-38
3.8547122 -6.3023443 0.26841009 1.8874076e-38
3.8247895 -6.2916722 0.071970701 1.8874076e-38
3.8310084 -6.303782 0.27056265 1.8874076e-38
3.8805835 -6.39855 0.44930661 1.8874076e-38
3.8020635 -6.301281 0.27401364 1.8874076e-38
3.851326 -6.3961263 0.45239401 1.8874076e-38
3.9915109 -6.4557681 1.6306847 1.8874076e-38
3.9897161 -6.4529662 2.025291 1.8874076e-38
3.9940646 -6.4613628 2.2216713 1.8874076e-38
3.983026 -6.4410176 2.4188709 1.8874076e-38
3.9780955 -6.4290409 0.43500757 1.8874076e-38
3.9953349 -6.5124741 1.0286411 1.8874076e-38
3.9806697 -6.4851694 1.2334065 1.8874076e-38
3.9758248 -6.476326 1.4326169 1.8874076e-38
3.9697275 -6.465127 1.6307803 1.8874076e-38
3.9652362 -6.4569478 1.8292078 1.8874076e-38
3.9641924 -6.4552488 2.0253642 1.8874076e-38
3.971339 -6.4689546 2.2215984 1.8874076e-38
3.9622393 -6.4521074 2.4188557 1.8874076e-38
3.960983 -6.4470663 0.433442 1.8874076e-38
3.9904079 -6.5599418 0.61780894 1.8874076e-38
3.9683506 -6.5184164 0.82845855 1.8874076e-38
3.9633517 -6.5092063 1.0308734 1.8874076e-38
3.9532318 -6.4905505 1.4324433 1.8874076e-38
3.9406524 -6.4669695 1.6314288 1.8874076e-38
3.9352534 -6.4569955 1.82964 1.8874076e-38
3.937017 -6.4605918 2.0254185 1.8874076e-38
3.9403927 -6.4672432 2.2213521 1.8874076e-38
3.9329469 -6.4508162 0.43536365 1.8874076e-38
3.9568422 -6.5441999 0.62292099 1.8874076e-38
3.9311724 -6.4955091 0.83406639 1.8874076e-38
3.9279892 -6.4896917 1.0351077 1.8874076e-38
3.929137 -6.4921317 1.2352073 1.8874076e-38
3.9206309 -6.4761596 1.4346302 1.8874076e-38
3.9136617 -6.4631166 1.6323023 1.8874076e-38
3.9166405 -6.4690442 1.8295628 1.8874076e-38
3.9100409 -6.4567037 2.0255468 1.8874076e-38
3.9236193 -6.4828448 2.2214253 1.8874076e-38
3.9109168 -6.4588661 2.4181466 1.8874076e-38
3.9207544 -6.529705 0.62803173 1.8874076e-38
3.8915291 -6.4738193 0.8396734 1.8874076e-38
3.891979 -6.4749231 1.0388414 1.8874076e-38
3.8848183 -6.4614105 1.2400743 1.8874076e-38
3.8855259 -6.463007 1.4368161 1.8874076e-38
3.8841136 -6.4605303 1.6331748 1.8874076e-38
3.885226 -6.4629045 1.8301896 1.8874076e-38
3.8860512 -6.464725 2.025568 1.8874076e-38
3.8977101 -6.4873562 2.2212961 1.8874076e-38
3.8906231 -6.4739795 2.4182835 1.8874076e-38
3.8635731 -6.4772248 0.64065957 1.8874076e-38
3.8507476 -6.4526334 0.84528005 1.8874076e-38
3.8529656 -6.4571552 1.0430747 1.8874076e-38
3.8512914 -6.4541435 1.2422972 1.8874076e-38
3.8592999 -6.4698691 1.4372733 1.8874076e-38
3.8533127 -6.4585071 1.634047 1.8874076e-38
3.8571682 -6.4661961 1.8304958 1.8874076e-38
3.8607442 -6.4733429 2.025589 1.8874076e-38
3.8741727 -6.4995627 2.2212815 1.8874076e-38
3.8662155 -6.484386 2.4181936 1.8874076e-38
3.8271298 -6.4064636 0.45276725 1.8874076e-38
3.826946 -6.4606161 0.64611387 1.8874076e-38
3.8159504 -6.4393992 0.84940946 1.8874076e-38
3.8217421 -6.4509087 1.0455605 1.8874076e-38
3.8227818 -6.4531536 1.2437081 1.8874076e-38
3.8270953 -6.4617791 1.4389892 1.8874076e-38
3.832067 -6.4716887 1.6339234 1.8874076e-38
3.8340807 -6.4758315 1.8305471 1.8874076e-38
3.8385525 -6.4847655 2.0255761 1.8874076e-38
3.8528204 -6.5128021 2.2212975 1.8874076e-38
3.8485601 -6.5047116 2.4185581 1.8874076e-38
3.8023353 -6.4613714 1.2439008 1.8874076e-38
3.8075337 -6.4717789 1.4389784 1.8874076e-38
3.8088572 -6.4745827 1.634356 1.8874076e-38
3.8163059 -6.4894071 1.8304081 1.8874076e-38
3.8207595 -6.498354 2.0255301 1.8874076e-38
3.8367734 -6.5299888 2.2214015 1.8874076e-38
3.8352585 -6.5272236 2.4190757 1.8874076e-38
3.802597 -6.5210285 2.0254116 1.8874076e-38
3.8194187 -6.5544963 2.2215903 1.8874076e-38
3.8197169 -6.5552835 2.4197428 1.8874076e-38
3.8054898 -6.5794282 2.2218096 1.8874076e-38
3.8192368 -6.6069975 2.4214685 1.8874076e-38
3.807513 -6.6365552 2.2225466 1.8874076e-38
3.821173 -6.6641331 2.4234211 1.8874076e-38
3.8207486 -6.7237616 2.2237422 1.8874076e-38
4.1222672 -6.4856749 2.02455 1.8874076e-38
4.1257277 -6.4922719 2.2230372 1.8874076e-38
4.1201854 -6.4825244 2.4227939 1.8874076e-38
4.1784348 -6.5847535 0.17929673 1.8874076e-38
4.1072183 -6.5135059 1.6248635 1.8874076e-38
4.0892425 -6.4809294 1.8267112 1.8874076e-38
4.1245613 -6.5430422 0.19313478 1.8874076e-38
4.1483145 -6.5868044 0.39164257 1.8874076e-38
4.0828257 -6.5184207 1.4257529 1.8874076e-38
4.042861 -6.4430246 0.22126806 1.8874076e-38
4.0680761 -6.4897528 0.41604698 1.8874076e-38
4.0730548 -6.5563979 1.0191785 1.8874076e-38
4.0307903 -6.4785638 1.4304482 1.8874076e-38
4.0208526 -6.4604096 1.6297033 1.8874076e-38
4.0172644 -6.4540372 1.8285339 1.8874076e-38
4.0124116 -6.4453158 2.0252714 1.8874076e-38
4.0196252 -6.4589844 2.2218308 1.8874076e-38
4.0142107 -6.4492221 2.4197173 1.8874076e-38
4.0137596 -6.4455204 0.42882109 1.8874076e-38
4.059454 -6.5812669 0.60895777 1.8874076e-38
4.0446997 -6.5539975 0.81843197 1.8874076e-38
4.0147233 -6.4985728 1.2305745 1.8874076e-38
4.0042295 -6.4792504 1.431375 1.8874076e-38
4.0308318 -6.5786691 0.6116755 1.8874076e-38
4.0021987 -6.5251088 0.82522094 1.8874076e-38
4.1448827 -6.6314754 0.59430134 1.8874076e-38
4.1002789 -6.6063142 0.60179889 1.8874076e-38
4.2163033 -6.6062169 0.17108572 1.8874076e-38
4.2481427 -6.6639991 0.36880994 1.8874076e-38
4.2205915 -6.6619468 0.58340645 1.8874076e-38
4.2100401 -6.6424584 0.3761574 1.8874076e-38
