# .PCD v0.7 - Point Cloud Data file format
VERSION 0.7
FIELDS x y z rgb
SIZE 4 4 4 4
TYPE F F F F
COUNT 1 1 1 1
WIDTH 107
HEIGHT 1
VIEWPOINT 0 0 0 1 0 0 0
POINTS 107
DATA ascii
-22.322603 11.6468 -0.039625645 2.3509528e-38
-22.326818 11.645119 0.5375036 2.3509528e-38
-22.312664 11.713807 -0.040976286 2.3509528e-38
-22.287914 11.463719 -0.031014919 2.3509528e-38
-22.298212 11.55412 -0.034704208 2.3509528e-38
-22.282486 11.542992 0.54237676 2.3509528e-38
-22.244211 11.207406 -0.019499779 2.3509528e-38
-22.340574 11.247919 0.54521739 2.3509528e-38
-22.26815 11.303148 -0.024397612 2.3509528e-38
-22.266424 11.387349 -0.026880264 2.3509528e-38
-22.224455 11.043884 -0.012906551 2.3509528e-38
-22.251812 11.052551 0.55461669 2.3509528e-38
-22.229111 11.130154 -0.015906811 2.3509528e-38
-22.219997 10.810347 0.56146944 2.3509528e-38
-22.230947 10.894068 0.55911756 2.3509528e-38
-22.223198 10.964065 -0.010399103 2.3509528e-38
-22.235966 10.966096 0.5573473 2.3509528e-38
-22.232279 10.66692 -0.0023698807 2.3509528e-38
-22.208326 10.652804 0.56531346 2.3509528e-38
-22.215925 10.725306 0.56341684 2.3509528e-38
-22.194588 10.42123 0.0077664852 2.3509528e-38
-22.162985 10.404118 0.57290184 2.3509528e-38
-22.184208 10.481701 0.57011878 2.3509528e-38
-22.198175 10.56563 0.56764007 2.3509528e-38
-22.138885 10.234784 0.57758224 2.3509528e-38
-22.152117 10.322077 0.5751282 2.3509528e-38
-22.136034 10.011435 0.023929834 2.3509528e-38
-22.124233 10.002925 0.58276665 2.3509528e-38
-22.175608 10.104292 0.018136024 2.3509528e-38
-22.127005 10.080636 0.58117402 2.3509528e-38
-22.174562 10.185326 0.01600194 2.3509528e-38
-22.13529 10.165358 0.57909977 2.3509528e-38
-22.095293 9.8514042 0.031590939 2.3509528e-38
-22.109245 9.8532867 0.58638382 2.3509528e-38
-22.116726 9.9317007 0.027673721 2.3509528e-38
-22.123339 9.930665 0.58413124 2.3509528e-38
-22.08025 9.6182337 0.03893733 2.3509528e-38
-22.081072 9.6148462 0.59230328 2.3509528e-38
-22.077217 9.6970253 0.037149668 2.3509528e-38
-22.089226 9.6980476 0.59035587 2.3509528e-38
-22.108446 9.7806835 0.032365561 2.3509528e-38
-22.105698 9.7758827 0.58797622 2.3509528e-38
-22.088879 9.4798307 0.041748524 2.3509528e-38
-22.063553 9.4663954 0.5959208 2.3509528e-38
-22.074083 9.5404835 0.041443825 2.3509528e-38
-22.065544 9.5334721 0.59465766 2.3509528e-38
-22.046612 9.2481003 0.05105257 2.3509528e-38
-22.034088 9.2397003 0.60151231 2.3509528e-38
-22.059994 9.3145733 0.048295021 2.3509528e-38
-22.049408 9.3068705 0.59946072 2.3509528e-38
-22.067335 9.3965635 0.045641661 2.3509528e-38
-22.051226 9.3867235 0.59802139 2.3509528e-38
-22.02352 9.0168495 0.058571577 2.3509528e-38
-22.012665 9.009182 0.60654366 2.3509528e-38
-22.034298 9.0861282 0.056013107 2.3509528e-38
-22.021637 9.0777636 0.60489929 2.3509528e-38
-22.053679 9.1719007 0.052318573 2.3509528e-38
-22.031752 9.160059 0.60295141 2.3509528e-38
-22.011932 8.860775 0.063210964 2.3509528e-38
-22.018551 8.9368372 0.060878277 2.3509528e-38
-22.013268 8.9312115 0.60772789 2.3509528e-38
-21.98732 8.6364288 0.070408821 2.3509528e-38
-21.972372 8.6275139 0.61488688 2.3509528e-38
-21.998995 8.7179737 0.067581177 2.3509528e-38
-21.98036 8.7077122 0.61319339 2.3509528e-38
-21.997231 8.7950077 0.065969706 2.3509528e-38
-21.986177 8.7873707 0.61162746 2.3509528e-38
-21.965443 8.4233255 0.07696414 2.3509528e-38
-21.946522 8.4132042 0.61961508 2.3509528e-38
-21.974846 8.4949045 0.074605227 2.3509528e-38
-21.954107 8.4841042 0.61812401 2.3509528e-38
-21.985905 8.5672407 0.072072506 2.3509528e-38
-21.978453 8.5609493 0.61548555 2.3509528e-38
-21.937002 8.2653084 0.62228918 2.3509528e-38
-21.958981 8.3486605 0.07912302 2.3509528e-38
-21.943777 8.3398428 0.62082469 2.3509528e-38
-21.902554 8.0424929 0.62747574 2.3509528e-38
-21.937305 8.129755 0.6241219 2.3509528e-38
-21.948456 8.1964321 0.083239555 2.3509528e-38
-21.957783 8.1957531 0.62193978 2.3509528e-38
-21.939219 7.9867702 0.62590015 2.3509528e-38
-21.881094 7.6204395 0.10044026 2.3509528e-38
-21.869076 7.61306 0.63503778 2.3509528e-38
-21.918852 7.7033095 0.63078558 2.3509528e-38
-21.936737 7.5038385 0.097837925 2.3509528e-38
-21.915173 7.4936876 0.63353848 2.3509528e-38
-21.866758 7.5374832 0.63609147 2.3509528e-38
-21.885677 7.207253 0.10751331 2.3509528e-38
-21.898949 7.2771063 0.1051544 2.3509528e-38
-21.852213 7.2599554 0.6402086 2.3509528e-38
-21.854214 7.1945705 0.64080215 2.3509528e-38
-21.829348 6.9860682 0.11610937 2.3509528e-38
-21.871675 6.7196155 0.11670363 2.3509528e-38
-21.824348 6.7034659 0.6477381 2.3509528e-38
-21.83732 6.7798729 0.11874068 2.3509528e-38
-21.639383 6.6062322 -0.38944101 2.3509528e-38
-21.654516 6.6666155 -0.39238191 2.3509528e-38
-21.660725 6.7369184 -0.39457774 2.3509528e-38
-21.793859 6.7646041 0.64910042 2.3509528e-38
-21.764515 6.4208932 0.654163 2.3509528e-38
-21.625872 6.4580598 -0.38488197 2.3509528e-38
-21.760937 6.48456 0.65382874 2.3509528e-38
-21.629866 6.5313592 -0.38682914 2.3509528e-38
-21.712938 6.2113271 0.65925574 2.3509528e-38
-21.601141 6.2598515 -0.37821341 2.3509528e-38
-21.609587 6.3258338 -0.38043618 2.3509528e-38
-21.627472 6.3943086 -0.38376665 2.3509528e-38
