# .PCD v0.7 - Point Cloud Data file format
VERSION 0.7
FIELDS x y z rgb
SIZE 4 4 4 4
TYPE F F F F
COUNT 1 1 1 1
WIDTH 59
HEIGHT 1
VIEWPOINT 0 0 0 1 0 0 0
POINTS 59
DATA ascii
3.7962818 -12.228623 2.2986782 2.3509528e-38
3.7640047 -12.283579 0.035930157 2.3509528e-38
3.7601666 -12.25972 2.2990201 2.3509528e-38
3.7238305 -12.274362 0.0389328 2.3509528e-38
3.7059858 -12.200204 2.2980256 2.3509528e-38
3.6922984 -12.311985 2.2995832 2.3509528e-38
3.6642056 -12.373663 2.3003914 2.3509528e-38
3.6208124 -12.352326 2.2999773 2.3509528e-38
3.9927127 -12.191952 1.6586946 2.3509528e-38
3.9030075 -12.032894 0.065854549 2.3509528e-38
3.868732 -12.067873 0.062354088 2.3509528e-38
3.8382981 -12.099525 0.059144974 2.3509528e-38
3.8214896 -12.178604 0.048543453 2.3509528e-38
3.9972005 -12.211653 0.36265624 2.3509528e-38
3.9995732 -12.213413 1.9785855 2.3509528e-38
3.9653773 -12.239889 0.3604511 2.3509528e-38
3.9723186 -12.261791 0.68555653 2.3509528e-38
3.9741495 -12.266644 1.0091507 2.3509528e-38
3.9692278 -12.248962 1.3331075 2.3509528e-38
3.963882 -12.229861 1.6578411 2.3509528e-38
3.9282277 -12.267521 0.35850215 2.3509528e-38
3.9373803 -12.297113 0.68316638 2.3509528e-38
3.9380867 -12.298194 1.0076294 2.3509528e-38
3.9355063 -12.28818 1.3316064 2.3509528e-38
3.9353473 -12.286337 1.6564182 2.3509528e-38
3.9341552 -12.281021 1.9782727 2.3509528e-38
3.9376581 -12.291552 2.2999818 2.3509528e-38
3.9006109 -12.310829 0.3543011 2.3509528e-38
3.9108336 -12.344348 0.67934895 2.3509528e-38
3.9199796 -12.374202 1.0023348 2.3509528e-38
3.9112871 -12.343202 1.3291048 2.3509528e-38
3.9122794 -12.345235 1.6548634 2.3509528e-38
3.9116805 -12.341854 1.9778606 2.3509528e-38
3.9033453 -12.312089 2.3001709 2.3509528e-38
3.8849952 -12.389218 1.9775726 2.3509528e-38
3.8773081 -12.361346 2.3007936 2.3509528e-38
3.8041329 -12.265962 0.036763906 2.3509528e-38
4.0008097 -12.221133 1.0119349 2.3509528e-38
4.0060201 -12.233504 2.299371 2.3509528e-38
4.3683248 -12.051733 0.36726558 2.3509528e-38
4.3922482 -12.122352 0.6857357 2.3509528e-38
4.3228903 -12.052225 0.36905086 2.3509528e-38
4.3347015 -12.086994 0.69105935 2.3509528e-38
4.3541117 -12.144708 1.0089136 2.3509528e-38
4.2855749 -12.054087 0.37033129 2.3509528e-38
4.2904668 -12.068065 0.69434428 2.3509528e-38
4.3047347 -12.110607 1.0127157 2.3509528e-38
4.3148332 -12.14045 1.3327456 2.3509528e-38
4.2499714 -12.083385 0.69417977 2.3509528e-38
4.2622666 -12.120286 1.0130688 2.3509528e-38
4.2648735 -12.12736 1.3343354 2.3509528e-38
4.2818742 -12.17873 1.6560458 2.3509528e-38
4.3749809 -12.206822 1.328172 2.3509528e-38
4.3450933 -12.231681 1.653765 2.3509528e-38
4.2977805 -12.226734 1.9774067 2.3509528e-38
4.3231211 -12.303764 2.3014235 2.3509528e-38
4.4568701 -12.080467 0.36021018 2.3509528e-38
4.4140601 -12.059376 0.36448407 2.3509528e-38
4.4515839 -12.169562 0.67919493 2.3509528e-38
