# .PCD v0.7 - Point Cloud Data file format
VERSION 0.7
FIELDS x y z rgb
SIZE 4 4 4 4
TYPE F F F F
COUNT 1 1 1 1
WIDTH 340
HEIGHT 1
VIEWPOINT 0 0 0 1 0 0 0
POINTS 340
DATA ascii
9.2012987 0.12631392 0.093375444 2.3418409e-38
9.3732719 0.080125511 0.28284109 2.3418409e-38
9.2073584 0.068901718 0.090393543 2.3418409e-38
9.2048464 0.044782221 0.0902071 2.3418409e-38
9.2096128 -0.037097931 0.086615801 2.3418409e-38
9.3821678 -0.058285594 0.27724397 2.3418409e-38
9.21033 -0.064888 0.085556507 2.3418409e-38
9.3886957 -0.087265968 0.27513397 2.3418409e-38
9.2185326 -0.095222831 0.082786083 2.3418409e-38
9.391037 -0.11747169 0.27377009 2.3418409e-38
9.2231531 -0.12192452 0.080889702 2.3418409e-38
9.3956356 -0.14465916 0.27205193 2.3418409e-38
9.3378649 -0.17096972 1.1785619 2.3418409e-38
9.2238169 -0.1481781 0.079843044 2.3418409e-38
9.3962584 -0.1713953 0.27109241 2.3418409e-38
9.3363018 -0.19893277 1.1781552 2.3418409e-38
9.2261372 -0.17630243 0.078359365 2.3418409e-38
9.3985415 -0.20003378 0.2697413 2.3418409e-38
9.2285852 -0.20283902 0.076888084 2.3418409e-38
9.3860674 -0.25521207 0.49906039 2.3418409e-38
9.3528719 -0.25588131 1.1754048 2.3418409e-38
9.2346134 -0.23152769 0.074554682 2.3418409e-38
9.232583 -0.26081896 0.073908806 2.3418409e-38
9.2386589 -0.2879647 0.071588039 2.3418409e-38
9.2388496 -0.31432867 0.070542097 2.3418409e-38
9.238492 -0.34393108 0.069471836 2.3418409e-38
9.2409391 -0.36737609 0.068025589 2.3418409e-38
9.2423439 -0.39729881 0.066530704 2.3418409e-38
9.2593536 -0.42801225 0.061646461 2.3418409e-38
9.2494926 -0.45297313 0.062727213 2.3418409e-38
9.2547398 -0.48197603 0.060394287 2.3418409e-38
9.258235 -0.50909126 0.058498621 2.3418409e-38
9.2555962 -0.53689516 0.05786705 2.3418409e-38
9.2644339 -0.56665158 0.054683208 2.3418409e-38
9.2635469 -0.59481668 0.053626776 2.3418409e-38
9.2721996 -0.6246767 0.050442457 2.3418409e-38
9.2791243 -0.65263855 0.047696352 2.3418409e-38
9.3781586 -0.70581305 1.1627507 2.3418409e-38
9.2725039 -0.67821586 0.047928572 2.3418409e-38
9.281189 -0.70659626 0.044756413 2.3418409e-38
9.3854313 -0.76476181 1.1605749 2.3418409e-38
9.283412 -0.73720527 0.042837381 2.3418409e-38
9.3915472 -0.79649127 1.1591811 2.3418409e-38
9.2797766 -0.76674891 0.04219532 2.3418409e-38
9.2865877 -0.79327846 0.039460659 2.3418409e-38
9.3866863 -0.84834754 0.70574081 2.3418409e-38
9.3653784 -0.84748816 1.1603483 2.3418409e-38
9.2923622 -0.82472563 0.036689997 2.3418409e-38
9.3985939 -0.87969697 0.7029388 2.3418409e-38
9.3944426 -0.88053727 0.92989993 2.3418409e-38
9.3930101 -0.88192356 1.1568117 2.3418409e-38
9.2964392 -0.85422063 0.034357071 2.3418409e-38
9.2995024 -0.87849534 0.032486439 2.3418409e-38
9.3030729 -0.909688 0.030141354 2.3418409e-38
9.3030558 -0.93849909 0.028660536 2.3418409e-38
9.3032951 -0.96570218 0.027191877 2.3418409e-38
9.3142176 -0.99863148 0.023143291 2.3418409e-38
9.4048471 -0.22756267 0.26764405 2.3418409e-38
9.4050121 -0.25600028 0.26667249 2.3418409e-38
9.4243202 -0.28875291 0.26189387 2.3418409e-38
9.4089746 -0.31345379 0.26397085 2.3418409e-38
9.4091167 -0.34029472 0.26301217 2.3418409e-38
9.408699 -0.37043309 0.26202893 2.3418409e-38
9.4460783 -0.39947736 0.25388265 2.3418409e-38
9.5126324 -0.44167471 0.47212768 2.3418409e-38
9.5510826 -0.44923747 0.69530141 2.3418409e-38
9.4648857 -0.43269241 0.24910223 2.3418409e-38
9.470252 -0.46228576 0.24699152 2.3418409e-38
9.4757891 -0.49026871 0.24489331 2.3418409e-38
9.4676247 -0.52126682 0.70503819 2.3418409e-38
9.5236311 -0.52678835 0.23442709 2.3418409e-38
9.5502939 -0.55845487 0.22814965 2.3418409e-38
9.4315701 -0.71045494 0.47607768 2.3418409e-38
9.4041796 -0.73601961 0.93312681 2.3418409e-38
9.4213495 -0.79713905 0.47443938 2.3418409e-38
9.4011297 -0.79496908 0.70556486 2.3418409e-38
9.4241819 -0.79596174 0.24223173 2.3418409e-38
9.4251919 -0.8217622 0.24090815 2.3418409e-38
9.5889196 -0.88470721 0.2072221 2.3418409e-38
9.4612694 -0.89053845 0.464136 2.3418409e-38
9.4098215 -0.90923035 1.1544864 2.3418409e-38
9.4245729 -0.94140863 0.92442012 2.3418409e-38
9.4115505 -0.94039989 1.1534843 2.3418409e-38
9.4154701 -0.97036338 1.1522987 2.3418409e-38
9.4745512 -1.121469 0.45216537 2.3418409e-38
9.4645443 -1.1209109 0.6846031 2.3418409e-38
9.4220209 -1.1130455 0.91908932 2.3418409e-38
9.4110756 -1.1122558 1.1487496 2.3418409e-38
9.421113 -1.1439688 0.91814518 2.3418409e-38
9.5515757 -1.2281909 0.6681118 2.3418409e-38
9.446393 -1.2366545 0.91196024 2.3418409e-38
9.4646597 -1.2426484 1.1398833 2.3418409e-38
9.4726505 -1.3849678 0.67269218 2.3418409e-38
9.5119686 -1.4265895 0.89740908 2.3418409e-38
9.4552202 -1.4137719 1.1355581 2.3418409e-38
9.4580564 -1.4426632 1.1343849 2.3418409e-38
9.460372 -1.4732411 1.1331999 2.3418409e-38
9.478591 -1.6860356 1.1245363 2.3418409e-38
9.4829865 -1.7141354 1.123178 2.3418409e-38
9.4877701 -1.7477989 1.1215875 2.3418409e-38
9.4021435 -1.8344152 -0.046735764 2.3418409e-38
9.5409184 -1.9087522 0.40177441 2.3418409e-38
9.5169096 -1.90309 0.64272666 2.3418409e-38
9.5034037 -1.9913986 1.1115687 2.3418409e-38
9.4008789 -1.9509244 -0.054744244 2.3418409e-38
9.5588369 -2.0038834 0.39348149 2.3418409e-38
9.5568266 -2.0363045 0.39192915 2.3418409e-38
9.5161209 -2.0250239 0.63673115 2.3418409e-38
9.5072098 -2.0254741 1.1099786 2.3418409e-38
9.4011755 -2.0143054 -0.059417248 2.3418409e-38
9.5175667 -2.1795564 1.1033049 2.3418409e-38
9.5607719 -2.2557971 0.6185565 2.3418409e-38
9.5289116 -2.2761071 1.0985805 2.3418409e-38
9.5262518 -2.3401849 1.3324893 2.3418409e-38
9.5218458 -2.4003758 1.3309011 2.3418409e-38
9.546834 -2.4698386 1.089329 2.3418409e-38
9.5532885 -2.5043271 1.0873543 2.3418409e-38
9.5515385 -2.5377889 1.0861605 2.3418409e-38
9.5645952 -2.5711446 1.0836139 2.3418409e-38
9.5355864 -2.5942123 1.3237007 2.3418409e-38
9.5388975 -2.6583707 1.3213553 2.3418409e-38
9.5410013 -2.6917017 1.3201011 2.3418409e-38
9.5673428 -2.7638102 1.0753546 2.3418409e-38
9.5709076 -2.7980633 1.073578 2.3418409e-38
9.7288561 0.430996 1.6058767 2.3418409e-38
9.6874781 0.40974164 1.3815353 2.3418409e-38
9.7560453 0.4019646 1.8331587 2.3418409e-38
9.683568 0.37943125 1.3814433 2.3418409e-38
9.6775551 0.37803817 1.6078678 2.3418409e-38
9.7201948 0.37350231 1.833846 2.3418409e-38
9.6876364 0.35029536 1.380774 2.3418409e-38
9.6696768 0.34972501 1.6079463 2.3418409e-38
9.6943521 0.34627712 1.8342754 2.3418409e-38
9.701685 0.32212669 1.3793793 2.3418409e-38
9.6757822 0.32216257 1.6073284 2.3418409e-38
9.7004595 0.31864613 1.8338438 2.3418409e-38
9.7035971 0.29127043 1.6055807 2.3418409e-38
9.6963949 0.29001158 1.8336729 2.3418409e-38
9.7157745 0.28681958 2.0593345 2.3418409e-38
9.7641401 0.25763053 1.8315425 2.3418409e-38
9.7017803 0.26060337 2.0591724 2.3418409e-38
9.6857204 0.23461729 2.0590193 2.3418409e-38
9.6972198 0.20304656 2.0587223 2.3418409e-38
9.7093678 0.20028257 2.2848313 2.3418409e-38
9.7785072 0.16715002 2.0581396 2.3418409e-38
9.698988 0.17216122 2.2844551 2.3418409e-38
9.6866827 0.14596081 2.2840548 2.3418409e-38
9.7099981 0.11486691 2.2843225 2.3418409e-38
9.7393465 0.084764361 2.2847161 2.3418409e-38
9.772584 0.054105878 2.2851839 2.3418409e-38
9.753355 -0.36333442 0.43460882 2.3418409e-38
9.7865648 -0.39587164 0.4280653 2.3418409e-38
9.7645264 -0.42406642 0.43083417 2.3418409e-38
9.725873 -0.44272661 0.4366585 2.3418409e-38
9.7669544 -0.48375547 0.89693058 2.3418409e-38
9.777071 -0.5727483 0.89338541 2.3418409e-38
9.6114426 -0.59775102 0.21502078 2.3418409e-38
9.7660942 -0.65683424 0.65833092 2.3418409e-38
9.6472712 -0.63316321 0.20682859 2.3418409e-38
9.7337961 -0.68110204 0.6621474 2.3418409e-38
9.748765 -0.68014109 0.18571615 2.3418409e-38
9.6575603 -0.80898392 0.19759071 2.3418409e-38
9.7656527 -1.0401783 0.64520586 2.3418409e-38
9.7349586 -1.1173804 0.16889191 2.3418409e-38
9.7132483 -1.1428909 0.17172563 2.3418409e-38
9.7221308 -1.1751499 0.16846991 2.3418409e-38
9.6951609 -1.2046235 0.6488589 2.3418409e-38
9.7534943 -1.2143967 0.16063285 2.3418409e-38
9.7963419 -1.2817891 0.14919376 2.3418409e-38
9.7651625 -1.3086822 0.39610338 2.3418409e-38
9.7718782 -1.308512 0.15239799 2.3418409e-38
9.7786369 -1.3371332 0.39258182 2.3418409e-38
9.6974201 -1.3159795 0.16593635 2.3418409e-38
9.750124 -1.3627524 0.39604366 2.3418409e-38
9.6423426 -1.3349016 0.17523885 2.3418409e-38
9.7200499 -1.3860471 0.39985383 2.3418409e-38
9.6257915 -1.3611815 0.17693686 2.3418409e-38
9.6263189 -1.391644 0.1752069 2.3418409e-38
9.7109737 -1.4144177 0.39998078 2.3418409e-38
9.7795048 -1.4587479 0.14300644 2.3418409e-38
9.6898632 -1.4702749 0.63865316 2.3418409e-38
9.7422981 -1.5126593 0.62949252 2.3418409e-38
9.6499748 -1.579046 0.4017843 2.3418409e-38
9.7988358 -1.7366686 0.12365055 2.3418409e-38
9.797698 -1.7695961 0.12190664 2.3418409e-38
9.7903719 -1.7952545 0.12172508 2.3418409e-38
9.785264 -1.8271084 0.12074471 2.3418409e-38
9.7843227 -1.8583515 0.11901379 2.3418409e-38
9.78053 -1.8850856 0.11807013 2.3418409e-38
9.7581997 -1.9118893 0.12052536 2.3418409e-38
9.7494698 -1.9408495 0.12032211 2.3418409e-38
9.7449303 -1.9692268 0.11936784 2.3418409e-38
9.7472878 -2.0016139 0.11687505 2.3418409e-38
9.7406988 -2.0294237 0.11630321 2.3418409e-38
9.7265368 -2.0548666 0.11725879 2.3418409e-38
9.7280684 -2.0889945 0.1147548 2.3418409e-38
9.7113352 -2.1154659 0.11608171 2.3418409e-38
9.7020016 -2.1442859 0.11588168 2.3418409e-38
9.6931391 -2.1713855 0.11569405 2.3418409e-38
9.6985512 -2.2050798 0.11243904 2.3418409e-38
9.6844988 -2.2286146 0.11340964 2.3418409e-38
9.6761189 -2.2596714 0.112818 2.3418409e-38
9.6756496 -2.2915478 0.11070979 2.3418409e-38
9.6647835 -2.4805117 0.83489013 2.3418409e-38
9.8632402 -0.40860534 0.65192091 2.3418409e-38
9.8528547 -0.43874168 0.65254903 2.3418409e-38
9.8375359 -0.4610796 0.65409338 2.3418409e-38
9.8248672 -0.55052912 0.8882829 2.3418409e-38
9.8500624 -0.72773623 0.16459918 2.3418409e-38
9.8625546 -0.75835598 0.16097343 2.3418409e-38
9.8517656 -0.7848587 0.16190839 2.3418409e-38
9.9239435 -0.82659888 0.14649832 2.3418409e-38
9.9182777 -0.98005474 0.14083171 2.3418409e-38
9.8953066 -1.0024447 0.38806522 2.3418409e-38
9.9037485 -1.0023544 0.14255464 2.3418409e-38
9.9050541 -1.0350595 0.14080369 2.3418409e-38
9.8912363 -1.0628555 0.14210939 2.3418409e-38
9.9205809 -1.1014955 0.62104928 2.3418409e-38
9.89884 -1.0933309 0.13924301 2.3418409e-38
9.8364944 -1.1124837 0.15005088 2.3418409e-38
9.8041496 -1.2546971 0.39218545 2.3418409e-38
9.8012018 -1.2522533 0.14978576 2.3418409e-38
9.8425198 -1.5056949 0.12869787 2.3418409e-38
9.9068613 -1.5568357 0.84638309 2.3418409e-38
9.8316364 -1.5322099 0.12926292 2.3418409e-38
9.8335323 -1.5638661 0.12714791 2.3418409e-38
9.8201399 -1.5915484 0.12808263 2.3418409e-38
9.9416733 -1.6253967 0.35204744 2.3418409e-38
9.9567404 -1.6311274 0.59435976 2.3418409e-38
9.9605455 -1.6338727 0.83720291 2.3418409e-38
9.87819 -1.6138246 1.0895008 2.3418409e-38
9.9354725 -1.6570935 0.59617436 2.3418409e-38
9.9411507 -1.6603479 0.83845186 2.3418409e-38
9.9511137 -1.6647546 1.0810231 2.3418409e-38
9.9601316 -1.6706061 1.561559 2.3418409e-38
9.9633455 -1.6731923 1.803021 2.3418409e-38
9.9707537 -1.6768909 2.0425093 2.3418409e-38
9.9921026 -1.6843369 2.282567 2.3418409e-38
9.8161535 -1.621707 0.12711203 2.3418409e-38
9.8197145 -1.6538396 0.3704133 2.3418409e-38
9.9031448 -1.6781261 0.5997386 2.3418409e-38
9.9259892 -1.6860359 0.83922744 2.3418409e-38
9.9282427 -1.6883807 1.0824001 2.3418409e-38
9.9344578 -1.6917789 1.3224643 2.3418409e-38
9.9314194 -1.6926646 1.5625082 2.3418409e-38
9.9268942 -1.6931551 1.8036865 2.3418409e-38
9.9323568 -1.6963401 2.0424895 2.3418409e-38
9.9614143 -1.7059362 2.281945 2.3418409e-38
9.814436 -1.6506631 0.12577283 2.3418409e-38
9.911128 -1.708293 0.35278261 2.3418409e-38
9.8898668 -1.7042189 0.60040998 2.3418409e-38
9.9050188 -1.710088 0.84073412 2.3418409e-38
9.8995581 -1.7103231 1.0843689 2.3418409e-38
9.90765 -1.7142479 1.3237739 2.3418409e-38
9.9084396 -1.7161679 1.5631456 2.3418409e-38
9.909688 -1.7182231 1.8037773 2.3418409e-38
9.9055004 -1.7187717 2.0424042 2.3418409e-38
9.9249001 -1.7257965 2.281219 2.3418409e-38
9.8164215 -1.6806643 0.12367082 2.3418409e-38
9.8844824 -1.7307255 0.35593927 2.3418409e-38
9.8688917 -1.7281489 0.60223997 2.3418409e-38
9.8916435 -1.7361615 0.84126782 2.3418409e-38
9.8919277 -1.7379663 1.0841725 2.3418409e-38
9.8980932 -1.7413793 1.3237278 2.3418409e-38
9.883481 -1.7390304 1.5638885 2.3418409e-38
9.8808613 -1.7400107 1.804215 2.3418409e-38
9.8959417 -1.7458875 2.0422189 2.3418409e-38
9.9114733 -1.7518935 2.2809165 2.3418409e-38
9.8107452 -1.7086077 0.12309468 2.3418409e-38
9.8860559 -1.7696662 1.3238208 2.3418409e-38
9.8676052 -1.7661912 1.5640981 2.3418409e-38
9.8936424 -1.7785826 2.2805321 2.3418409e-38
9.8827095 -1.7953837 0.35282767 2.3418409e-38
9.8672009 -1.7927248 0.59949601 2.3418409e-38
9.8498535 -1.7895274 0.84400547 2.3418409e-38
9.8830423 -1.8023503 1.3231483 2.3418409e-38
9.8742237 -1.801544 1.5630426 2.3418409e-38
9.8716173 -1.8025062 1.8035562 2.3418409e-38
9.8751335 -1.8051925 2.0418131 2.3418409e-38
9.8944874 -1.8123813 2.2804875 2.3418409e-38
9.8260298 -1.8071804 0.36136615 2.3418409e-38
9.8103552 -1.8044188 0.60684276 2.3418409e-38
9.8787527 -1.8256881 0.83919477 2.3418409e-38
9.8756561 -1.8282208 1.3229653 2.3418409e-38
9.8726044 -1.8290393 1.5625463 2.3418409e-38
9.8757715 -1.8316483 1.8030266 2.3418409e-38
9.8754444 -1.8332415 2.0415847 2.3418409e-38
9.8890162 -1.8388243 2.2803392 2.3418409e-38
9.8896885 -1.8659003 1.3209355 2.3418409e-38
9.8636551 -1.8600454 1.5623271 2.3418409e-38
9.8764191 -1.8654473 1.8025184 2.3418409e-38
9.874176 -1.8664818 2.0413201 2.3418409e-38
9.8877354 -1.8721056 2.2802598 2.3418409e-38
9.916482 -1.8987191 0.34181714 2.3418409e-38
9.8993301 -1.8954344 0.59019768 2.3418409e-38
9.90697 -1.8993878 0.83292091 2.3418409e-38
9.8978519 -1.8984399 1.0782062 2.3418409e-38
9.8983479 -1.900285 1.31937 2.3418409e-38
9.8800297 -1.8966084 1.5607609 2.3418409e-38
9.8793774 -1.8981166 1.8019645 2.3418409e-38
9.8790598 -1.899709 2.0410333 2.3418409e-38
9.8964434 -1.9064987 2.2803679 2.3418409e-38
9.9579887 -1.9391973 0.33290958 2.3418409e-38
9.9410295 -1.9359269 0.58248258 2.3418409e-38
9.9469128 -1.9393892 0.82664561 2.3418409e-38
9.9321976 -1.9367661 1.0736851 2.3418409e-38
9.9289522 -1.9375105 1.3161682 2.3418409e-38
9.9030428 -1.9315393 1.5589045 2.3418409e-38
9.9062538 -1.9341924 1.80074 2.3418409e-38
9.8963614 -1.9329495 2.0407019 2.3418409e-38
9.9079762 -1.9380796 2.2805347 2.3418409e-38
9.9502239 -1.9778452 1.3135328 2.3418409e-38
9.9932642 -1.9924333 1.5532423 2.3418409e-38
9.9506006 -1.9813676 1.7988987 2.3418409e-38
9.9464855 -1.9818282 2.0401258 2.3418409e-38
9.9542475 -1.9858506 2.2813277 2.3418409e-38
9.9754324 -2.398716 0.80330765 2.3418409e-38
9.91008 -2.4386263 0.56098461 2.3418409e-38
9.9575071 -2.456789 0.80266929 2.3418409e-38
9.8966694 -2.4649935 0.56137586 2.3418409e-38
9.9036856 -2.5021946 0.80667639 2.3418409e-38
9.8975782 -2.5311832 0.8059988 2.3418409e-38
10.010498 -1.6522908 1.5594767 2.3418409e-38
10.023414 -1.6574497 1.8016794 2.3418409e-38
10.048244 -1.6657584 2.0423212 2.3418409e-38
10.065731 -1.6721258 2.2839799 2.3418409e-38
10.165564 -2.0786777 1.791907 2.3418409e-38
10.196898 -2.3379986 0.271752 2.3418409e-38
10.156955 -2.3583541 0.27691865 2.3418409e-38
10.188231 -2.3704596 0.52657843 2.3418409e-38
10.141097 -2.4180927 0.27584314 2.3418409e-38
10.007683 -2.4062579 0.29781878 2.3418409e-38
10.080931 -2.5666013 1.0366495 2.3418409e-38
10.329897 -2.086117 0.52141452 2.3418409e-38
10.399323 -2.237905 0.50434744 2.3418409e-38
10.339938 -2.3189478 0.24999213 2.3418409e-38
10.328125 -2.3490226 0.25011516 2.3418409e-38
10.405905 -2.1425128 0.50815868 2.3418409e-38
10.504478 -2.1740999 0.75235188 2.3418409e-38
10.463267 -2.1935825 0.75629139 2.3418409e-38
