# .PCD v0.7 - Point Cloud Data file format
VERSION 0.7
FIELDS x y z rgb
SIZE 4 4 4 4
TYPE F F F F
COUNT 1 1 1 1
WIDTH 86
HEIGHT 1
VIEWPOINT 0 0 0 1 0 0 0
POINTS 86
DATA ascii
10.071166 -8.0661554 1.0422168 2.3477242e-38
10.072476 -8.1167507 1.3561304 2.3477242e-38
10.095394 -8.1938419 1.0338403 2.3477242e-38
10.049672 -8.1537352 1.3555399 2.3477242e-38
10.077009 -8.2287416 1.0329261 2.3477242e-38
10.110989 -8.318469 1.0260777 2.3477242e-38
10.086526 -8.3497114 1.3463662 2.3477242e-38
10.171021 -8.4779148 0.68856668 2.3477242e-38
10.086656 -8.4023581 1.3442621 2.3477242e-38
10.155675 -8.5234461 0.68639481 2.3477242e-38
10.128109 -8.4991331 1.0150653 2.3477242e-38
10.078897 -8.4545002 1.3424699 2.3477242e-38
10.022489 -8.4515667 0.048957109 2.3477242e-38
10.160485 -8.5832586 0.3508724 2.3477242e-38
10.144814 -8.5715704 1.0100933 2.3477242e-38
10.032123 -8.5104551 0.041764975 2.3477242e-38
10.11718 -8.5972424 1.3353064 2.3477242e-38
10.033633 -8.5719872 0.035137177 2.3477242e-38
10.043933 -8.6355953 0.027347326 2.3477242e-38
10.176157 -8.7670832 0.99737489 2.3477242e-38
10.13493 -8.7290382 1.32933 2.3477242e-38
10.046567 -8.6955957 0.020727873 2.3477242e-38
10.062282 -8.7618275 0.01206255 2.3477242e-38
10.183313 -8.8807945 0.32236111 2.3477242e-38
10.172461 -8.8718147 0.65991676 2.3477242e-38
10.161463 -8.8626699 0.99274671 2.3477242e-38
10.061237 -8.8224335 0.0057301521 2.3477242e-38
10.063366 -8.8796139 -0.0005865097 2.3477242e-38
10.180946 -8.9996614 0.98389339 2.3477242e-38
10.17028 -8.9907064 1.3173933 2.3477242e-38
10.077923 -8.9493904 -0.0095546246 2.3477242e-38
10.07884 -9.0130911 -0.016476393 2.3477242e-38
10.087178 -9.0775671 -0.024266005 2.3477242e-38
10.158923 -9.1553364 1.311069 2.3477242e-38
10.094478 -9.1485014 -0.032660961 2.3477242e-38
10.199221 -9.2583961 0.96805882 2.3477242e-38
10.193121 -9.2537737 1.3057697 2.3477242e-38
10.099044 -9.2135954 -0.040163517 2.3477242e-38
10.103311 -9.2788048 -0.047666311 2.3477242e-38
10.110471 -9.3437777 -0.055455446 2.3477242e-38
10.104499 -9.399291 -0.060894251 2.3477242e-38
10.18972 -9.4309225 1.2985702 2.3477242e-38
10.082244 -9.4345999 -0.062492132 2.3477242e-38
10.068093 -9.478426 -0.065858126 2.3477242e-38
10.041902 -9.5171795 -0.067470312 2.3477242e-38
10.025187 -9.5549278 -0.069942713 2.3477242e-38
10.244146 -8.8292284 0.32163119 2.3477242e-38
10.234532 -8.9931679 0.30779278 2.3477242e-38
10.23674 -8.9968805 0.64622462 2.3477242e-38
10.256147 -9.126893 0.29385459 2.3477242e-38
10.232283 -9.1686239 0.63388765 2.3477242e-38
10.223199 -9.1611242 0.97238815 2.3477242e-38
10.202838 -9.1424084 1.3099911 2.3477242e-38
10.248852 -9.2421799 0.62728691 2.3477242e-38
10.247651 -9.3040361 0.2785114 2.3477242e-38
10.230618 -9.2884512 0.62511945 2.3477242e-38
10.254661 -9.3725166 0.2716589 2.3477242e-38
10.258572 -9.4383001 0.26530409 2.3477242e-38
10.244317 -9.4268551 0.95592844 2.3477242e-38
10.266792 -9.5052443 0.25845993 2.3477242e-38
10.282187 -9.5225372 0.60408711 2.3477242e-38
10.258332 -9.4996443 0.95096338 2.3477242e-38
10.271487 -9.5726843 0.25185657 2.3477242e-38
10.236831 -9.5400581 0.9497366 2.3477242e-38
10.215748 -9.5198545 1.2939361 2.3477242e-38
10.284625 -9.645587 0.244017 2.3477242e-38
10.270293 -9.6934376 0.939026 2.3477242e-38
10.303931 -9.7946749 0.5821104 2.3477242e-38
10.272412 -9.7631636 0.93482602 2.3477242e-38
10.210359 -9.6996412 1.2866292 2.3477242e-38
10.291227 -9.9731417 0.9214772 2.3477242e-38
10.275001 -9.9573355 1.2735015 2.3477242e-38
10.32127 -10.065484 0.56034601 2.3477242e-38
10.306755 -10.051425 0.91604352 2.3477242e-38
10.292012 -10.037111 1.269533 2.3477242e-38
10.349749 -10.228981 0.5459137 2.3477242e-38
10.326067 -10.204786 0.90594208 2.3477242e-38
10.372725 -10.313248 0.53790259 2.3477242e-38
10.286251 -10.221906 1.2619073 2.3477242e-38
10.323074 -10.331898 0.89850509 2.3477242e-38
10.304714 -10.313228 1.2573743 2.3477242e-38
10.362988 -10.508242 0.88591111 2.3477242e-38
10.343572 -10.488162 1.2485502 2.3477242e-38
10.386295 -10.593575 0.51533151 2.3477242e-38
10.375369 -10.582869 0.88079762 2.3477242e-38
10.358743 -10.565785 1.244699 2.3477242e-38
