# .PCD v0.7 - Point Cloud Data file format
VERSION 0.7
FIELDS x y z rgb
SIZE 4 4 4 4
TYPE F F F F
COUNT 1 1 1 1
WIDTH 47
HEIGHT 1
VIEWPOINT 0 0 0 1 0 0 0
POINTS 47
DATA ascii
14.389716 3.5272901 2.068805 2.3509528e-38
14.365298 3.485018 1.3885918 2.3509528e-38
14.356591 3.480536 1.7302577 2.3509528e-38
14.34985 3.4764223 2.068536 2.3509528e-38
14.374784 3.477772 2.4071162 2.3509528e-38
14.344595 3.4401977 1.3896074 2.3509528e-38
14.343742 3.437084 1.7304161 2.3509528e-38
14.331075 3.4319918 2.0682435 2.3509528e-38
14.350111 3.4322789 2.4060936 2.3509528e-38
14.331217 3.3993313 1.3902562 2.3509528e-38
14.326402 3.3955648 1.7306991 2.3509528e-38
14.327528 3.3928185 2.0679388 2.3509528e-38
14.332768 3.3907585 2.4052622 2.3509528e-38
14.322895 3.3517013 1.3906453 2.3509528e-38
14.325955 3.3492491 1.7305111 2.3509528e-38
14.319184 3.345211 2.0675831 2.3509528e-38
14.338243 3.3454015 2.4048285 2.3509528e-38
14.320333 3.3050995 1.3907429 2.3509528e-38
14.331281 3.3039114 1.7301711 2.3509528e-38
14.324505 3.2998989 2.0671968 2.3509528e-38
14.35147 3.3013 2.4045632 2.3509528e-38
14.331828 3.2710347 1.390146 2.3509528e-38
14.334886 3.2685721 1.7299182 2.3509528e-38
14.341934 3.2667651 2.0668659 2.3509528e-38
14.362982 3.2671649 2.4043846 2.3509528e-38
14.350718 3.2278311 1.3891692 2.3509528e-38
14.355762 3.2256684 1.7291708 2.3509528e-38
14.362819 3.223841 2.066443 2.3509528e-38
14.372017 3.222342 2.4040353 2.3509528e-38
14.368715 3.1895478 1.3882353 2.3509528e-38
14.381679 3.1885769 1.7283128 2.3509528e-38
14.382813 3.1858284 2.0660634 2.3509528e-38
14.446684 3.5874879 1.3845644 2.3509528e-38
14.447915 3.584703 1.728267 2.3509528e-38
14.470047 3.5826945 2.410224 2.3509528e-38
14.403873 3.1861045 2.4042308 2.3509528e-38
14.402416 3.1535447 1.3865184 2.3509528e-38
14.419364 3.1531291 1.7271476 2.3509528e-38
14.422488 3.1506715 2.0656359 2.3509528e-38
14.439595 3.150295 2.4045088 2.3509528e-38
14.448623 3.1140652 1.3841691 2.3509528e-38
14.463635 3.1133087 1.7257839 2.3509528e-38
14.474689 3.1119943 2.0651352 2.3509528e-38
14.503668 3.1132874 2.4053252 2.3509528e-38
14.510544 3.0765808 1.3810344 2.3509528e-38
14.549364 3.0791707 1.7233427 2.3509528e-38
14.548571 3.076118 2.0645792 2.3509528e-38
