# .PCD v0.7 - Point Cloud Data file format
VERSION 0.7
FIELDS x y z rgb
SIZE 4 4 4 4
TYPE F F F F
COUNT 1 1 1 1
WIDTH 113
HEIGHT 1
VIEWPOINT 0 0 0 1 0 0 0
POINTS 113
DATA ascii
17.738501 5.5823874 1.2189634 9.1476764e-41
17.760887 5.5352993 1.2180356 9.1476764e-41
17.798271 5.4853296 1.2163786 9.1476764e-41
17.856195 6.5700011 1.2086535 9.1476764e-41
17.921988 6.5864697 1.6450368 9.1476764e-41
17.892672 6.5197577 1.2071838 9.1476764e-41
18.184052 6.376976 1.6379883 9.1476764e-41
18.119566 6.353888 2.0783124 9.1476764e-41
18.161446 6.319243 1.1952772 9.1476764e-41
18.158688 6.3143802 1.6385472 9.1476764e-41
18.167078 6.3128133 2.0778091 9.1476764e-41
18.184885 6.2600808 1.637781 9.1476764e-41
18.168306 6.2512727 2.077306 9.1476764e-41
18.265896 6.1731415 1.6355324 9.1476764e-41
18.251232 6.1649728 2.0763092 9.1476764e-41
18.274343 6.113574 1.635205 9.1476764e-41
18.263515 6.1065345 2.0757916 9.1476764e-41
18.279789 6.0566621 1.6349566 9.1476764e-41
18.270874 6.0501938 2.0753086 9.1476764e-41
18.28524 6.0066743 1.6347177 9.1476764e-41
18.280174 6.0012898 2.0748789 9.1476764e-41
18.297007 5.9481573 1.6342943 9.1476764e-41
18.28421 5.9407077 2.0743737 9.1476764e-41
18.301085 5.8944583 1.6340766 9.1476764e-41
18.286341 5.8865333 2.0739272 9.1476764e-41
18.30114 5.8397522 1.6339581 9.1476764e-41
18.294113 5.8339181 2.073473 9.1476764e-41
18.248289 5.7724538 0.75399292 9.1476764e-41
18.306568 5.7797055 1.6336843 9.1476764e-41
18.299532 5.7738991 2.0729673 9.1476764e-41
18.312088 5.7265635 1.6334196 9.1476764e-41
18.305044 5.7207828 2.0725172 9.1476764e-41
18.321333 5.674417 1.6330568 9.1476764e-41
18.304588 5.6661911 2.0720766 9.1476764e-41
18.320402 5.6129274 1.6329334 9.1476764e-41
18.30946 5.6062245 2.071573 9.1476764e-41
18.298277 5.5530562 1.6333634 9.1476764e-41
18.316427 5.5536304 2.0711219 9.1476764e-41
18.312624 5.5102744 0.75177717 9.1476764e-41
18.241013 5.4847531 1.6346868 9.1476764e-41
18.31159 5.4981718 2.0706902 9.1476764e-41
18.326893 5.4448586 1.6323376 9.1476764e-41
18.312023 5.4373269 2.0701954 9.1476764e-41
18.34094 5.401968 0.75065851 9.1476764e-41
18.331446 5.3917971 1.632077 9.1476764e-41
18.314617 5.3838468 2.0697529 9.1476764e-41
18.328733 5.3331475 2.0692916 9.1476764e-41
18.29674 5.2766838 0.75482488 9.1476764e-41
18.360044 5.2875533 1.1894662 9.1476764e-41
18.273436 5.2634001 1.6332412 9.1476764e-41
18.338358 5.2746391 2.0687828 9.1476764e-41
18.332991 5.2272816 1.1909386 9.1476764e-41
18.339811 5.2249188 1.6313913 9.1476764e-41
18.342426 5.2216191 2.0683386 9.1476764e-41
18.238297 5.1484919 1.1957647 9.1476764e-41
18.233326 5.1434555 1.6339455 9.1476764e-41
18.350969 5.1662941 2.0678599 9.1476764e-41
18.318008 5.1128545 1.1919287 9.1476764e-41
18.352774 5.1128473 2.0674202 9.1476764e-41
18.313478 5.0508885 1.6315614 9.1476764e-41
18.364895 5.0583773 2.0669355 9.1476764e-41
18.364429 5.0045214 2.0665009 9.1476764e-41
18.200834 4.9765673 1.1979536 9.1476764e-41
18.266108 4.9869385 1.6326061 9.1476764e-41
18.369097 4.9451303 2.0660028 9.1476764e-41
18.346142 4.8904982 1.6301911 9.1476764e-41
18.378084 4.8934064 2.0655515 9.1476764e-41
18.392151 4.8466158 1.6288347 9.1476764e-41
18.381054 4.8404355 2.0651116 9.1476764e-41
18.383869 4.7874784 2.0646727 9.1476764e-41
18.387184 4.7313261 2.0642056 9.1476764e-41
18.386406 4.6744041 2.0637474 9.1476764e-41
18.348278 4.55652 2.4968488 9.1476764e-41
18.349548 4.496995 2.49613 9.1476764e-41
18.393866 4.4455962 2.4963436 9.1476764e-41
18.39109 4.3957539 2.0614729 9.1476764e-41
18.352676 4.3394837 1.6280246 9.1476764e-41
18.327692 4.331151 2.0611773 9.1476764e-41
18.359152 4.2806292 2.0606549 9.1476764e-41
18.423872 5.5922856 0.74311304 9.1476764e-41
18.411963 5.4734325 0.7449832 9.1476764e-41
18.587549 5.4023089 1.178026 9.1476764e-41
18.465715 5.3774104 0.7419194 9.1476764e-41
18.471861 5.2632451 0.74236751 9.1476764e-41
18.418261 5.1933508 0.74673736 9.1476764e-41
18.593416 5.1167774 1.1783936 9.1476764e-41
18.588179 5.0000505 1.1788642 9.1476764e-41
18.536583 4.884655 0.74032354 9.1476764e-41
18.525835 4.8284235 0.74144137 9.1476764e-41
18.40085 4.7948332 1.6284304 9.1476764e-41
18.527308 4.7714376 0.74167204 9.1476764e-41
18.408098 4.7394218 1.6280483 9.1476764e-41
18.53056 4.7148695 0.74176013 9.1476764e-41
18.409298 4.6828232 1.6278176 9.1476764e-41
18.534275 4.6550784 0.74182034 9.1476764e-41
18.414881 4.6238098 1.6274587 9.1476764e-41
18.403746 4.6177826 2.0632265 9.1476764e-41
18.547039 4.6105323 0.74113441 9.1476764e-41
18.419744 4.5780382 1.6271632 9.1476764e-41
18.402712 4.5709 2.0628502 9.1476764e-41
18.598694 4.556098 1.1788633 9.1476764e-41
18.426954 4.5194001 1.6267551 9.1476764e-41
18.40991 4.5123205 2.0623498 9.1476764e-41
18.430046 4.4600143 1.6264485 9.1476764e-41
18.41692 4.4537315 2.0618501 9.1476764e-41
18.416033 4.4041705 1.6266035 9.1476764e-41
18.657879 4.9605641 1.175499 9.1476764e-41
18.692308 4.9133511 1.1738749 9.1476764e-41
18.632711 4.84659 1.1769021 9.1476764e-41
18.669468 4.7964563 1.1751525 9.1476764e-41
18.670834 4.7390776 1.1751487 9.1476764e-41
18.682465 4.6803951 1.1746316 9.1476764e-41
18.68354 4.6332026 1.174618 9.1476764e-41
