# .PCD v0.7 - Point Cloud Data file format
VERSION 0.7
FIELDS x y z rgb
SIZE 4 4 4 4
TYPE F F F F
COUNT 1 1 1 1
WIDTH 43
HEIGHT 1
VIEWPOINT 0 0 0 1 0 0 0
POINTS 43
DATA ascii
19.696838 -7.8332396 0.44742024 1.2472041e-38
19.719824 -7.9180984 0.44274354 1.2472041e-38
19.746511 -7.9334402 0.94563055 1.2472041e-38
19.728043 -7.9283695 1.4539659 1.2472041e-38
19.762495 -7.9472237 1.956548 1.2472041e-38
19.797234 -7.966218 2.460799 1.2472041e-38
19.717579 -7.9826288 0.94561553 1.2472041e-38
19.72278 -7.9882812 1.4530354 1.2472041e-38
19.691689 -7.9773607 1.956558 1.2472041e-38
19.719116 -7.9931173 2.4594688 1.2472041e-38
19.725298 -8.0569372 0.94321561 1.2472041e-38
19.725077 -8.0601158 1.4517024 1.2472041e-38
19.690407 -8.0474358 1.9559948 1.2472041e-38
19.725063 -8.0666122 2.4596877 1.2472041e-38
19.617384 -8.0747395 0.44379568 1.2472041e-38
19.74 -8.1347246 0.94038951 1.2472041e-38
19.71442 -8.1261654 1.4507875 1.2472041e-38
19.648954 -8.0990963 1.9557252 1.2472041e-38
19.734373 -8.1419029 2.4599726 1.2472041e-38
19.72327 -8.197238 1.449298 1.2472041e-38
19.743351 -8.2033243 0.93833113 1.2472041e-38
19.72871 -8.2062721 2.4599822 1.2472041e-38
19.724968 -8.266119 0.93742239 1.2472041e-38
19.732065 -8.272727 1.4477264 1.2472041e-38
19.728462 -8.2775269 2.4601021 1.2472041e-38
19.693506 -8.3292923 1.9537002 1.2472041e-38
19.746035 -8.3574247 2.4605522 1.2472041e-38
19.754086 -8.4223776 1.4444851 1.2472041e-38
19.755932 -8.4297504 2.4608593 1.2472041e-38
19.646879 -8.4396563 0.9361105 1.2472041e-38
19.756708 -8.5021877 2.4610124 1.2472041e-38
19.90024 -7.9277563 0.93869579 1.2472041e-38
19.912865 -7.936738 1.4492421 1.2472041e-38
19.916401 -7.9416142 1.9560407 1.2472041e-38
19.921976 -7.9474077 2.4629638 1.2472041e-38
20.17453 -7.9157515 0.92634821 1.2472041e-38
20.163616 -7.9142923 1.4434171 1.2472041e-38
20.178205 -7.9240799 1.9552428 1.2472041e-38
20.185581 -7.9306784 2.4675844 1.2472041e-38
20.045267 -7.9214458 0.93217003 1.2472041e-38
20.043404 -7.9239597 1.4462309 1.2472041e-38
20.028711 -7.9207277 1.9558067 1.2472041e-38
20.056196 -7.9362831 2.4653111 1.2472041e-38
