# .PCD v0.7 - Point Cloud Data file format
VERSION 0.7
FIELDS x y z rgb
SIZE 4 4 4 4
TYPE F F F F
COUNT 1 1 1 1
WIDTH 63
HEIGHT 1
VIEWPOINT 0 0 0 1 0 0 0
POINTS 63
DATA ascii
14.950988 -13.689246 1.4405549 2.3418409e-38
14.92231 -13.738745 0.45941198 2.3418409e-38
14.951135 -13.771689 1.43854 2.3418409e-38
14.917398 -13.831277 1.4377606 2.3418409e-38
14.952971 -13.94547 0.44590735 2.3418409e-38
14.8957 -13.892669 1.4366912 2.3418409e-38
14.874192 -13.964917 1.4353476 2.3418409e-38
14.962234 -14.13867 0.43426359 2.3418409e-38
14.935085 -14.115637 1.4304259 2.3418409e-38
14.922374 -14.192692 1.4287796 2.3418409e-38
15.172853 -13.733528 1.9261489 2.3418409e-38
15.054877 -13.708901 1.4379799 2.3418409e-38
15.155096 -13.809077 1.9256005 2.3418409e-38
15.189283 -13.925632 1.9245334 2.3418409e-38
15.052229 -13.873808 1.9254454 2.3418409e-38
15.087678 -14.002811 1.924273 2.3418409e-38
15.009658 -14.103428 1.923738 2.3418409e-38
15.071597 -14.256024 1.9222792 2.3418409e-38
15.019257 -14.293541 1.9221632 2.3418409e-38
15.00164 -14.361177 1.9216785 2.3418409e-38
15.015896 -14.467323 1.9207673 2.3418409e-38
15.012495 -14.543851 0.40805888 2.3418409e-38
15.005691 -14.54123 1.4185075 2.3418409e-38
15.022649 -14.560994 1.9199842 2.3418409e-38
15.042519 -14.66671 1.4146659 2.3418409e-38
15.076085 -14.703874 1.9186348 2.3418409e-38
15.002872 -14.724021 1.4140191 2.3418409e-38
15.036779 -14.838005 0.38954401 2.3418409e-38
15.071734 -14.87924 1.4088004 2.3418409e-38
15.175367 -14.990637 1.9159549 2.3418409e-38
15.044375 -14.946096 0.38278103 2.3418409e-38
15.065649 -14.973052 1.4065766 2.3418409e-38
15.318549 -13.459903 1.9278425 2.3418409e-38
15.3598 -13.501154 2.4177308 2.3418409e-38
15.237116 -13.458658 1.9281451 2.3418409e-38
15.237662 -13.461466 2.4157982 2.3418409e-38
15.214757 -13.528555 1.927659 2.3418409e-38
15.269333 -13.662409 1.9263786 2.3418409e-38
15.204182 -13.686807 1.9264148 2.3418409e-38
15.29178 -13.846727 1.4298382 2.3418409e-38
15.59479 -13.289161 1.9282339 2.3418409e-38
15.510121 -13.301478 1.9284382 2.3418409e-38
15.446658 -13.322979 1.9284918 2.3418409e-38
15.554399 -13.597846 2.4210765 2.3418409e-38
15.56307 -13.856466 0.91993237 2.3418409e-38
15.472544 -13.855225 1.4259636 2.3418409e-38
15.533217 -13.999979 0.91524327 2.3418409e-38
15.449952 -13.921904 1.424808 2.3418409e-38
15.598794 -14.070322 2.4253991 2.3418409e-38
15.493871 -14.040603 0.91505539 2.3418409e-38
15.47937 -14.121311 0.91231084 2.3418409e-38
15.659765 -13.268456 1.9281683 2.3418409e-38
15.752438 -13.431223 1.4303899 2.3418409e-38
15.671734 -13.448126 1.4316568 2.3418409e-38
15.628247 -13.412763 2.4206398 2.3418409e-38
15.662098 -13.520379 1.4301312 2.3418409e-38
15.615806 -13.482181 2.4210038 2.3418409e-38
15.783771 -13.715375 1.4229615 2.3418409e-38
15.766895 -13.704401 2.4247425 2.3418409e-38
15.718497 -13.747113 1.4235423 2.3418409e-38
15.957584 -13.033095 0.93757832 2.3418409e-38
15.904847 -13.065706 0.93834209 2.3418409e-38
15.98308 -13.142238 2.4234607 2.3418409e-38
