# .PCD v0.7 - Point Cloud Data file format
VERSION 0.7
FIELDS x y z rgb
SIZE 4 4 4 4
TYPE F F F F
COUNT 1 1 1 1
WIDTH 44
HEIGHT 1
VIEWPOINT 0 0 0 1 0 0 0
POINTS 44
DATA ascii
-21.61161 2.2654328 -0.34270334 2.3418052e-38
-21.780294 2.2712402 0.15372312 2.3418052e-38
-21.756557 2.3993948 0.1561625 2.3418052e-38
-21.556244 2.3263483 -0.33636832 2.3418052e-38
-21.516573 2.38797 -0.33183002 2.3418052e-38
-21.274273 3.4349482 -0.30679464 2.3418052e-38
-21.281263 3.4959421 -0.30790138 2.3418052e-38
-21.390282 3.5009542 0.69152713 2.3418052e-38
-21.282156 3.5562825 -0.3083384 2.3418052e-38
-21.381266 3.5604236 0.6921159 2.3418052e-38
-21.265669 3.2387371 -0.30493021 2.3418052e-38
-21.366714 3.241576 0.69296849 2.3418052e-38
-21.266497 3.3063614 -0.30530882 2.3418052e-38
-21.359604 3.3086717 0.69348657 2.3418052e-38
-21.269903 3.3668127 -0.30596828 2.3418052e-38
-21.293406 3.0615437 -0.30742788 2.3418052e-38
-21.397533 3.0676847 0.18871379 2.3418052e-38
-21.364784 3.0606318 0.69289076 2.3418052e-38
-21.285643 3.1207745 -0.30674338 2.3418052e-38
-21.267828 3.1789651 -0.30494189 2.3418052e-38
-21.347826 2.8114917 -0.31297517 2.3418052e-38
-21.394577 2.8115015 0.18904293 2.3418052e-38
-21.334173 2.8778219 -0.31155801 2.3418052e-38
-21.322962 2.9368253 -0.31042314 2.3418052e-38
-21.303673 2.995039 -0.30839443 2.3418052e-38
-21.376104 2.9978812 0.1906724 2.3418052e-38
-21.353231 2.9918525 0.69354773 2.3418052e-38
-21.376522 2.6262693 -0.31599927 2.3418052e-38
-21.371368 2.6933875 -0.31547403 2.3418052e-38
-21.35869 2.7523847 -0.31411195 2.3418052e-38
-21.332857 2.7424111 0.6943835 2.3418052e-38
-21.30616 2.4262342 0.69521391 2.3418052e-38
-21.313555 2.4939814 0.69495225 2.3418052e-38
-21.350266 2.5603824 0.19279456 2.3418052e-38
-21.309725 2.2398391 0.69427478 2.3418052e-38
-21.365482 2.0003309 0.18998384 2.3418052e-38
-21.311487 2.1727958 0.69387746 2.3418052e-38
-21.362179 1.9404223 0.19004393 2.3418052e-38
-21.303192 1.9338684 0.69330704 2.3418052e-38
-21.314487 1.9939888 0.6928581 2.3418052e-38
-21.264557 1.6200914 0.69411409 2.3418052e-38
-21.309929 1.6849391 0.19354606 2.3418052e-38
-21.298677 1.6806017 0.69221556 2.3418052e-38
-21.333603 1.7527721 0.19176543 2.3418052e-38
