# .PCD v0.7 - Point Cloud Data file format
VERSION 0.7
FIELDS x y z rgb
SIZE 4 4 4 4
TYPE F F F F
COUNT 1 1 1 1
WIDTH 796
HEIGHT 1
VIEWPOINT 0 0 0 1 0 0 0
POINTS 796
DATA ascii
7.5914898 -2.6121333 0.45740044 9.1476764e-41
7.5941033 -2.6397858 0.25055718 9.1476764e-41
7.5913191 -2.63975 0.45495534 9.1476764e-41
7.5921769 -2.6695776 0.45211852 9.1476764e-41
7.5946641 -2.7246103 0.65118003 9.1476764e-41
7.5923815 -2.7515085 0.64934897 9.1476764e-41
7.5941973 -2.778857 0.64685106 9.1476764e-41
7.595253 -2.8075709 0.64434493 9.1476764e-41
7.5990238 -2.8068726 0.23255217 9.1476764e-41
7.5944452 -2.8354363 0.64217651 9.1476764e-41
7.5998578 -2.8355827 0.22940564 9.1476764e-41
7.5984783 -2.8926232 0.63683486 9.1476764e-41
7.5868607 -2.9151659 0.63669395 9.1476764e-41
7.7884822 -2.2954659 0.2451638 9.1476764e-41
7.7948742 -2.3265915 0.65109169 9.1476764e-41
7.7558465 -2.3072588 0.25059116 9.1476764e-41
7.7692761 -2.3461993 0.65361881 9.1476764e-41
7.7322264 -2.3275754 0.25342226 9.1476764e-41
7.7532248 -2.3634024 0.65483403 9.1476764e-41
7.7995782 -2.3848333 0.84846938 9.1476764e-41
7.7198644 -2.3462691 0.25414693 9.1476764e-41
7.794425 -2.3799329 0.44188869 9.1476764e-41
7.7305336 -2.3808768 0.65704381 9.1476764e-41
7.6991177 -2.3644853 0.25656891 9.1476764e-41
7.6925941 -2.3629606 0.46127808 9.1476764e-41
7.6759501 -2.3831606 0.25941169 9.1476764e-41
7.6527438 -2.3969204 0.26271021 9.1476764e-41
7.6425233 -2.3936996 0.46750426 9.1476764e-41
7.7108192 -2.4011836 0.65857148 9.1476764e-41
7.7841249 -2.4348366 0.84728456 9.1476764e-41
7.6928501 -2.4173701 0.66012597 9.1476764e-41
7.7841206 -2.4592323 0.84569514 9.1476764e-41
7.6790442 -2.4385829 0.66065216 9.1476764e-41
7.759347 -2.4758544 0.84787631 9.1476764e-41
7.6497197 -2.4228215 0.26084793 9.1476764e-41
7.6663709 -2.4618945 0.66083312 9.1476764e-41
7.6335406 -2.4444463 0.26197815 9.1476764e-41
7.6215696 -2.4403548 0.46720147 9.1476764e-41
7.6572514 -2.4819658 0.66070318 9.1476764e-41
7.6315722 -2.4676678 0.26013374 9.1476764e-41
7.6339464 -2.4700584 0.46247256 9.1476764e-41
7.6468525 -2.5046842 0.66055644 9.1476764e-41
7.6087732 -2.4846208 0.26298928 9.1476764e-41
7.6164398 -2.48944 0.46385968 9.1476764e-41
7.6399651 -2.5290251 0.65973556 9.1476764e-41
7.727035 -2.5705483 0.84583342 9.1476764e-41
7.6107726 -2.5129306 0.2598418 9.1476764e-41
7.6202707 -2.5186222 0.46064699 9.1476764e-41
7.6336226 -2.5520229 0.65892339 9.1476764e-41
7.706243 -2.5871136 0.84744394 9.1476764e-41
7.602663 -2.5350113 0.25927615 9.1476764e-41
7.6157174 -2.5423872 0.45935977 9.1476764e-41
7.6301551 -2.5780191 0.65742838 9.1476764e-41
7.6062484 -2.564203 0.25570011 9.1476764e-41
7.6104665 -2.5674841 0.45806432 9.1476764e-41
7.6008949 -2.5892768 0.25426877 9.1476764e-41
7.6955366 -2.6099753 0.84729719 9.1476764e-41
7.6212535 -2.6014991 0.65694582 9.1476764e-41
7.6182537 -2.6261702 0.65545952 9.1476764e-41
7.6049132 -2.6172185 0.25070119 9.1476764e-41
7.6109819 -2.6504776 0.6546402 9.1476764e-41
7.6065383 -2.6778178 0.65313768 9.1476764e-41
7.6036916 -2.6738429 0.24525678 9.1476764e-41
7.6003985 -2.6994574 0.65233588 9.1476764e-41
7.6565218 -2.7280612 0.84425366 9.1476764e-41
7.6888676 -2.7398932 0.22196043 9.1476764e-41
7.6566434 -2.7523932 0.22696495 9.1476764e-41
7.6049767 -2.7283709 0.44456005 9.1476764e-41
7.6174068 -2.7612758 0.23368728 9.1476764e-41
7.6659961 -2.786576 0.42868626 9.1476764e-41
7.603334 -2.7808111 0.23441112 9.1476764e-41
7.6325083 -2.7966201 0.43353939 9.1476764e-41
7.6413226 -2.8035874 0.84091294 9.1476764e-41
7.642354 -2.832464 0.83872664 9.1476764e-41
7.676877 -2.8445528 0.0035233498 9.1476764e-41
7.6123962 -2.8148692 0.43531513 9.1476764e-41
7.6379833 -2.8587036 0.83741641 9.1476764e-41
7.787343 -2.9354558 1.0189157 9.1476764e-41
7.6341629 -2.8515821 0.011919737 9.1476764e-41
7.6097651 -2.8418787 0.43325436 9.1476764e-41
7.6030006 -2.866472 0.63832748 9.1476764e-41
7.6342039 -2.8836181 0.83611465 9.1476764e-41
7.7904501 -2.9643981 1.0168116 9.1476764e-41
7.6164017 -2.869386 0.013684273 9.1476764e-41
7.6535077 -2.8895528 0.21338975 9.1476764e-41
7.6042185 -2.8657985 0.43196952 9.1476764e-41
7.6331825 -2.9116786 0.83422077 9.1476764e-41
7.7909918 -2.9938436 1.014945 9.1476764e-41
7.6117558 -2.8955286 0.011644363 9.1476764e-41
7.6766639 -2.9300668 0.20466161 9.1476764e-41
7.610146 -2.8973074 0.4279896 9.1476764e-41
7.6250291 -2.9361372 0.83349526 9.1476764e-41
7.6139297 -2.9252398 0.0077068806 9.1476764e-41
7.6614518 -2.9510548 0.20537794 9.1476764e-41
7.612464 -2.9270859 0.42477763 9.1476764e-41
7.6056018 -2.9518018 0.63081765 9.1476764e-41
7.622757 -2.9619892 0.83190215 9.1476764e-41
7.6080651 -2.949192 0.0061504841 9.1476764e-41
7.6312766 -2.9625506 0.20996726 9.1476764e-41
7.6536865 -2.975487 0.4131279 9.1476764e-41
7.6214552 -2.9901075 0.83000886 9.1476764e-41
7.6324205 -2.990674 -0.0039567947 9.1476764e-41
7.6229029 -2.9870052 0.20896745 9.1476764e-41
7.6261644 -2.9900062 0.41644204 9.1476764e-41
7.7843728 -3.0196857 1.0140624 9.1476764e-41
7.7783756 -3.0441647 1.0131887 9.1476764e-41
7.6549368 -3.0063581 0.61884952 9.1476764e-41
7.7733498 -3.0709195 1.0120606 9.1476764e-41
7.7667885 -3.0943341 0.59471309 9.1476764e-41
7.6183033 -3.0173306 0.82840776 9.1476764e-41
7.7664776 -3.0967541 1.0111792 9.1476764e-41
7.6273723 -3.0169449 -0.0059962273 9.1476764e-41
7.6507435 -3.0305648 0.19895041 9.1476764e-41
7.7045469 -3.0602174 0.39633512 9.1476764e-41
7.7838731 -3.1294479 0.58917928 9.1476764e-41
7.6164718 -3.0419097 0.82682359 9.1476764e-41
7.7644691 -3.1217356 1.0098224 9.1476764e-41
7.6305189 -3.0441971 -0.0099174976 9.1476764e-41
7.6608348 -3.0615773 0.19367278 9.1476764e-41
7.6834507 -3.0748706 0.39851403 9.1476764e-41
7.7934232 -3.165978 0.58463371 9.1476764e-41
7.6194072 -3.0742278 0.8240459 9.1476764e-41
7.7637053 -3.1526718 1.0079484 9.1476764e-41
7.6434298 -3.0819001 -0.017186403 9.1476764e-41
7.6893387 -3.1077342 0.18321633 9.1476764e-41
7.6394086 -3.0823565 0.40527725 9.1476764e-41
7.6124811 -3.0996442 0.82302988 9.1476764e-41
7.7600613 -3.1804056 1.0065752 9.1476764e-41
7.6243896 -3.1009011 -0.015427351 9.1476764e-41
7.649549 -3.1157427 0.18994761 9.1476764e-41
7.6894426 -3.1385098 0.39131117 9.1476764e-41
7.6166286 -3.129385 0.82026875 9.1476764e-41
7.6333623 -3.1332979 -0.021255493 9.1476764e-41
7.6671815 -3.1529217 0.18251395 9.1476764e-41
7.6199417 -3.160512 0.81749952 9.1476764e-41
7.6363659 -3.1643214 -0.025668144 9.1476764e-41
7.696413 -3.1996846 0.38412476 9.1476764e-41
7.6162014 -3.1878815 0.81589937 9.1476764e-41
7.6324401 -3.1916585 -0.028181076 9.1476764e-41
7.6408744 -3.1988873 0.39358854 9.1476764e-41
7.7570562 -3.2068014 1.0052105 9.1476764e-41
7.7986193 -3.2254353 0.3642925 9.1476764e-41
7.7567081 -3.2364693 1.0033453 9.1476764e-41
7.7679558 -3.2374086 0.15402222 9.1476764e-41
7.7510343 -3.2633014 1.002219 9.1476764e-41
7.620028 -3.2177691 0.81313837 9.1476764e-41
7.7547021 -3.2935929 0.99986959 9.1476764e-41
7.63766 -3.2223763 -0.033060074 9.1476764e-41
7.7296572 -3.2745547 0.15718555 9.1476764e-41
7.6634302 -3.2392259 0.38577449 9.1476764e-41
7.6289315 -3.2505999 0.80949998 9.1476764e-41
7.7513256 -3.3200727 0.99850571 9.1476764e-41
7.6767201 -3.2720504 -0.047436714 9.1476764e-41
7.6442585 -3.2552891 0.17552936 9.1476764e-41
7.6875353 -3.2806783 0.3775754 9.1476764e-41
7.6283345 -3.2800059 0.80731535 9.1476764e-41
7.7505631 -3.3498626 0.99664092 9.1476764e-41
7.7859869 -3.3632135 -0.081769466 9.1476764e-41
7.641777 -3.2837014 0.17281306 9.1476764e-41
7.6610637 -3.2958069 0.38051045 9.1476764e-41
7.6327972 -3.3123655 0.80425346 9.1476764e-41
7.7410526 -3.3748035 0.99600828 9.1476764e-41
7.7729549 -3.3863182 -0.081910133 9.1476764e-41
7.6408944 -3.3130975 0.16966701 9.1476764e-41
7.6431165 -3.3156404 0.38152516 9.1476764e-41
7.6371346 -3.34479 0.80119169 9.1476764e-41
7.6568856 -3.3521771 0.1622237 9.1476764e-41
7.6404743 -3.3441377 0.37908173 9.1476764e-41
7.6529546 -3.3826594 0.58630073 9.1476764e-41
7.6447806 -3.3792448 0.79754484 9.1476764e-41
7.6388073 -3.3719864 0.16337574 9.1476764e-41
7.6513572 -3.3804579 0.37356412 9.1476764e-41
7.6210976 -3.3945308 0.58988595 9.1476764e-41
7.7859015 -3.4281335 0.56275725 9.1476764e-41
7.740087 -3.404635 0.99414396 9.1476764e-41
7.7632322 -3.4113035 -0.082999945 9.1476764e-41
7.7407351 -3.4354858 0.99203312 9.1476764e-41
7.7500577 -3.43434 -0.08313942 9.1476764e-41
7.6454329 -3.4098291 0.79506791 9.1476764e-41
7.7343912 -3.4624114 0.99090838 9.1476764e-41
7.7351313 -3.4563684 -0.082802773 9.1476764e-41
7.6579103 -3.4131808 0.15507245 9.1476764e-41
7.7029014 -3.4404068 0.35882127 9.1476764e-41
7.6265855 -3.4243722 0.58638191 9.1476764e-41
7.6560812 -3.4427505 0.79114425 9.1476764e-41
7.7329583 -3.4886327 0.9893074 9.1476764e-41
7.7166691 -3.4727259 -0.081024408 9.1476764e-41
7.7811995 -3.5127602 0.33832681 9.1476764e-41
7.6415424 -3.4652324 0.58048487 9.1476764e-41
7.6574259 -3.47578 0.78836668 9.1476764e-41
7.7307844 -3.519928 0.98743558 9.1476764e-41
7.7109132 -3.5018678 -0.083545685 9.1476764e-41
7.7313499 -3.5164123 0.34625304 9.1476764e-41
7.6602159 -3.5061865 0.78560495 9.1476764e-41
7.7317924 -3.549561 0.98533332 9.1476764e-41
7.6915627 -3.5194669 -0.081774235 9.1476764e-41
7.6831374 -3.5171118 0.35419703 9.1476764e-41
7.6638036 -3.53899 0.78254282 9.1476764e-41
7.7370162 -3.583621 0.98248327 9.1476764e-41
7.6697073 -3.5373445 -0.079535246 9.1476764e-41
7.6730371 -3.5419054 0.35329175 9.1476764e-41
7.6487894 -3.561388 0.57060063 9.1476764e-41
7.6664643 -3.5731936 0.77947259 9.1476764e-41
7.6670418 -3.5684023 -0.083004951 9.1476764e-41
7.6587634 -3.5945926 0.56608045 9.1476764e-41
7.6533442 -3.5874796 -0.082648993 9.1476764e-41
7.7361856 -3.6160517 0.9803648 9.1476764e-41
7.6697063 -3.6024227 0.77671897 9.1476764e-41
7.7308578 -3.6403852 0.9792577 9.1476764e-41
7.6686826 -3.6315784 0.56120563 9.1476764e-41
7.6729198 -3.6354027 0.77365673 9.1476764e-41
7.7255225 -3.6684456 0.97788787 9.1476764e-41
7.6446366 -3.6132007 -0.084209919 9.1476764e-41
7.7001948 -3.649322 0.3375113 9.1476764e-41
7.6835017 -3.6717358 0.55531466 9.1476764e-41
7.6726241 -3.6663857 0.7711798 9.1476764e-41
7.7251754 -3.6996102 0.97577822 9.1476764e-41
7.6242223 -3.6318498 -0.082442999 9.1476764e-41
7.7131586 -3.688477 0.33122253 9.1476764e-41
7.690568 -3.705534 0.55112457 9.1476764e-41
7.6780963 -3.6991663 0.76783264 9.1476764e-41
7.7221527 -3.7273932 0.97416997 9.1476764e-41
7.7605972 -3.7521987 1.1840087 9.1476764e-41
7.6211538 -3.659224 -0.085420847 9.1476764e-41
7.7200871 -3.7223053 0.32647991 9.1476764e-41
7.6933193 -3.7386842 0.54760361 9.1476764e-41
7.680932 -3.7323179 0.76477015 9.1476764e-41
7.7232723 -3.7596669 0.97181392 9.1476764e-41
7.7293968 -3.7596154 0.32095957 9.1476764e-41
7.6942654 -3.7708545 0.5444212 9.1476764e-41
7.6819577 -3.7644858 0.7620008 9.1476764e-41
7.7225819 -3.7909422 0.96970439 9.1476764e-41
7.7318807 -3.7928867 0.31697786 9.1476764e-41
7.6870556 -3.7974544 0.7586534 9.1476764e-41
7.7009454 -3.8048577 0.54023063 9.1476764e-41
7.7242999 -3.8219585 0.96735609 9.1476764e-41
7.7356477 -3.830307 1.1816075 9.1476764e-41
7.7350783 -3.8248639 0.31300414 9.1476764e-41
7.7033105 -3.8381853 0.53670967 9.1476764e-41
7.6895084 -3.8307791 0.75559103 9.1476764e-41
7.720015 -3.8512025 0.9657408 9.1476764e-41
7.7347383 -3.8617187 1.1798701 9.1476764e-41
7.7439566 -3.862422 0.30748343 9.1476764e-41
7.707211 -3.8726215 0.53284991 9.1476764e-41
7.6884871 -3.8620453 0.7531147 9.1476764e-41
7.7156243 -3.8804641 0.96412551 9.1476764e-41
7.7236209 -3.8867831 1.1793354 9.1476764e-41
7.749361 -3.8979788 0.30273223 9.1476764e-41
7.7101703 -3.9047194 0.52933657 9.1476764e-41
7.6915412 -3.8941298 0.75006008 9.1476764e-41
7.7170095 -3.9115925 0.96177769 9.1476764e-41
7.7216749 -3.9158216 1.1778064 9.1476764e-41
7.7472057 -3.9269896 0.29991269 9.1476764e-41
7.7088261 -3.9360933 0.52649331 9.1476764e-41
7.6919484 -3.9265466 0.74729073 9.1476764e-41
7.7190871 -3.9451852 0.95917487 9.1476764e-41
7.7473869 -3.9594955 0.29631579 9.1476764e-41
7.7139907 -3.9717746 0.52229464 9.1476764e-41
7.6972194 -3.9622245 0.74364269 9.1476764e-41
7.7227015 -3.9799085 0.95632517 9.1476764e-41
7.7507424 -3.9941726 0.29194927 9.1476764e-41
7.6973667 -3.9947467 0.74087322 9.1476764e-41
7.7190113 -4.0075288 0.51809597 9.1476764e-41
7.7211833 -4.011456 0.9542166 9.1476764e-41
7.7605467 -4.0331845 0.28604317 9.1476764e-41
7.7231188 -4.0409307 0.51424372 9.1476764e-41
7.6999249 -4.0270505 0.73781884 9.1476764e-41
7.7270741 -4.0460305 0.95112765 9.1476764e-41
7.7546387 -4.0602169 0.28399384 9.1476764e-41
7.7229171 -4.0735798 0.51106167 9.1476764e-41
7.7031302 -4.0618396 0.73446357 9.1476764e-41
7.7253089 -4.0776672 0.94901907 9.1476764e-41
7.7608733 -4.0972276 0.27885735 9.1476764e-41
7.7284155 -4.1081829 0.50687051 9.1476764e-41
7.7120395 -4.0986185 0.73023665 9.1476764e-41
7.7309394 -4.1123672 0.94593 9.1476764e-41
7.7596679 -4.1275535 0.27565336 9.1476764e-41
7.7312398 -4.1431165 0.50301051 9.1476764e-41
7.710022 -4.1302595 0.72776055 9.1476764e-41
7.7355356 -4.1484904 0.94283307 9.1476764e-41
7.7688894 -4.1668754 0.26974702 9.1476764e-41
7.7339244 -4.1781111 0.49915051 9.1476764e-41
7.7144599 -4.166337 0.72411215 9.1476764e-41
7.7366877 -4.182476 0.94023049 9.1476764e-41
7.7665286 -4.1986556 0.26653552 9.1476764e-41
7.7341113 -4.2096138 0.49597633 9.1476764e-41
7.71802 -4.2000327 0.7207644 9.1476764e-41
7.740263 -4.2162724 0.93738854 9.1476764e-41
7.7649632 -4.2291112 0.26333189 9.1476764e-41
7.7341828 -4.241158 0.49280238 9.1476764e-41
7.7214518 -4.2337885 0.71741652 9.1476764e-41
7.7453532 -4.2512422 0.93429911 9.1476764e-41
7.7697873 -4.2640014 0.25858796 9.1476764e-41
7.7404332 -4.2809987 0.48791754 9.1476764e-41
7.7196445 -4.2680717 0.71464014 9.1476764e-41
7.74682 -4.2878685 0.93144178 9.1476764e-41
7.7709994 -4.3005695 0.25421393 9.1476764e-41
7.7427998 -4.3124104 0.48441195 9.1476764e-41
7.7286339 -4.3039474 0.71042025 9.1476764e-41
7.7525606 -4.3216205 0.92835999 9.1476764e-41
7.7748599 -4.3331237 0.24986279 9.1476764e-41
7.7454929 -4.3501692 0.4802053 9.1476764e-41
7.7281752 -4.3394618 0.70735049 9.1476764e-41
7.7537346 -4.3583732 0.92550266 9.1476764e-41
7.7709398 -4.3664641 0.24664414 9.1476764e-41
7.7499094 -4.3852897 0.4760139 9.1476764e-41
7.7343221 -4.3757143 0.70341611 9.1476764e-41
7.7484918 -4.3868127 0.92389715 9.1476764e-41
7.773612 -4.4004784 0.24228537 9.1476764e-41
7.750011 -4.4195724 0.47249341 9.1476764e-41
7.7377586 -4.4122596 0.69976747 9.1476764e-41
7.7945042 -4.4494023 0.23329675 9.1476764e-41
7.7551093 -4.4534631 0.46830928 9.1476764e-41
7.7348614 -4.4404783 0.6976006 9.1476764e-41
7.7993932 -4.487124 0.91128623 9.1476764e-41
7.7555938 -4.4903445 0.46444201 9.1476764e-41
7.7451439 -4.484201 0.69247746 9.1476764e-41
7.7610664 -4.5268588 0.45991111 9.1476764e-41
7.7474923 -4.5184464 0.68912971 9.1476764e-41
7.7617893 -4.5298777 0.91177177 9.1476764e-41
7.7596436 -4.5627151 0.45638335 9.1476764e-41
7.7493753 -4.5566082 0.68547344 9.1476764e-41
7.7782164 -4.578537 0.9064399 9.1476764e-41
7.7622476 -4.5995679 0.45218432 9.1476764e-41
7.756886 -4.5969543 0.6809442 9.1476764e-41
7.7698631 -4.6360879 0.44732153 9.1476764e-41
7.7629943 -4.6323581 0.67701697 9.1476764e-41
7.7774043 -4.6440611 0.90149808 9.1476764e-41
7.769587 -4.6732721 0.44345438 9.1476764e-41
7.759604 -4.6672349 0.67424119 9.1476764e-41
7.775631 -4.6801858 0.89888871 9.1476764e-41
7.7727394 -4.7089634 0.43926299 9.1476764e-41
7.7644429 -4.7041216 0.67030644 9.1476764e-41
7.7805023 -4.7171664 0.89555156 9.1476764e-41
7.782094 -4.749402 0.43371367 9.1476764e-41
7.7675443 -4.7399039 0.66666508 9.1476764e-41
7.7868237 -4.7553968 0.8919667 9.1476764e-41
7.7829309 -4.7879534 0.42950726 9.1476764e-41
7.7732482 -4.7820039 0.66212821 9.1476764e-41
7.7861891 -4.7928748 0.88910985 9.1476764e-41
7.7893548 -4.8287501 0.42428982 9.1476764e-41
7.7750306 -4.8192816 0.65847933 9.1476764e-41
7.7864151 -4.8290467 0.88626063 9.1476764e-41
7.7966318 -4.8682747 0.41907966 9.1476764e-41
7.7776842 -4.8552628 0.65483797 9.1476764e-41
7.7938614 -4.8686852 0.88242817 9.1476764e-41
7.7817736 -4.892498 0.65090322 9.1476764e-41
7.7995644 -4.9072137 0.87884319 9.1476764e-41
7.7925472 -4.9371567 0.6454922 9.1476764e-41
7.7952733 -4.9759135 0.64154971 9.1476764e-41
7.7978377 -5.0147376 0.63760746 9.1476764e-41
7.7900467 -5.112042 -0.085798502 9.1476764e-41
7.7702928 -5.1339412 -0.085489511 9.1476764e-41
7.752007 -5.1569915 -0.085610628 9.1476764e-41
7.7306018 -5.1775484 -0.084868193 9.1476764e-41
7.9268308 -2.2203813 0.63818407 9.1476764e-41
7.977653 -2.2423887 0.83367419 9.1476764e-41
7.9303031 -2.2190444 0.22364986 9.1476764e-41
7.9025621 -2.2091541 0.43658853 9.1476764e-41
7.9044361 -2.2386689 0.6403861 9.1476764e-41
7.9496589 -2.2585526 0.83642745 9.1476764e-41
7.8917446 -2.2307365 0.23034704 9.1476764e-41
7.8784342 -2.2266524 0.43949592 9.1476764e-41
7.8820033 -2.2568521 0.64258909 9.1476764e-41
7.9307828 -2.2783582 0.83772659 9.1476764e-41
7.8676338 -2.2481923 0.23361897 9.1476764e-41
7.8851147 -2.2567747 0.43589509 9.1476764e-41
7.8595324 -2.2749307 0.64479303 9.1476764e-41
7.9100323 -2.2973189 0.83931756 9.1476764e-41
7.8254542 -2.2580249 0.24117601 9.1476764e-41
7.8554444 -2.2718704 0.43995273 9.1476764e-41
7.8346291 -2.2935095 0.64732599 9.1476764e-41
7.8813629 -2.3144956 0.84206486 9.1476764e-41
7.8007245 -2.276561 0.24444115 9.1476764e-41
7.8114266 -2.3078723 0.64988685 9.1476764e-41
7.867167 -2.332813 0.84280252 9.1476764e-41
7.8870082 -2.3385174 0.42893052 9.1476764e-41
7.8523417 -2.3524501 0.84353185 9.1476764e-41
7.8247933 -2.3714383 0.84598219 9.1476764e-41
7.8285232 -2.370368 0.43665922 9.1476764e-41
7.8003473 -2.4127314 0.84657037 9.1476764e-41
7.9888177 -2.7488911 1.0080882 9.1476764e-41
7.9632788 -2.7658002 1.0099015 9.1476764e-41
7.9509158 -2.7871797 1.010005 9.1476764e-41
7.936039 -2.8090467 1.0103457 9.1476764e-41
7.9168596 -2.830513 1.0111699 9.1476764e-41
7.8960743 -2.8460207 1.0125128 9.1476764e-41
7.8792577 -2.8668189 1.0131016 9.1476764e-41
7.8659449 -2.8893111 1.0131996 9.1476764e-41
7.976007 -2.9369678 -0.071620226 9.1476764e-41
7.8319311 -2.899771 1.016257 9.1476764e-41
7.8153071 -2.8848701 -0.030963659 9.1476764e-41
7.8007851 -2.9132125 1.0188154 9.1476764e-41
7.8799257 -3.2423615 0.56522179 9.1476764e-41
7.9512 -3.3094501 0.54885805 9.1476764e-41
7.9729462 -3.3519263 0.54195094 9.1476764e-41
7.9599614 -3.3755794 0.54180586 9.1476764e-41
7.8015265 -3.2858515 0.14228141 9.1476764e-41
7.9511266 -3.3997145 0.54099357 9.1476764e-41
7.945663 -3.4257522 0.53950512 9.1476764e-41
7.9238634 -3.4445024 0.54105282 9.1476764e-41
7.890008 -3.4563756 0.5449692 9.1476764e-41
7.851923 -3.5920458 1.1853499 9.1476764e-41
7.8010435 -4.4844799 0.22817492 9.1476764e-41
7.8978529 -4.5948758 1.1226234 9.1476764e-41
7.8173676 -4.5327897 0.21994829 9.1476764e-41
7.8370175 -4.5796576 0.21135104 9.1476764e-41
7.9162078 -4.6787786 1.1159325 9.1476764e-41
7.8353539 -4.6157036 0.2073617 9.1476764e-41
7.8615894 -4.6699414 0.19682944 9.1476764e-41
7.8641548 -4.7031946 0.19247735 9.1476764e-41
7.9934587 -4.8341198 -0.083029747 9.1476764e-41
7.9818101 -4.8599072 -0.084444523 9.1476764e-41
7.9348207 -4.8660564 1.1026435 9.1476764e-41
7.9685078 -4.8845148 -0.085427761 9.1476764e-41
7.9083462 -4.885026 1.1035138 9.1476764e-41
7.9452252 -4.9060483 -0.084271193 9.1476764e-41
7.9274621 -4.9359059 1.0987597 9.1476764e-41
7.9244866 -4.9272785 -0.083536863 9.1476764e-41
7.9235487 -4.9676061 1.0970306 9.1476764e-41
7.9109764 -4.9517541 -0.084518671 9.1476764e-41
7.8037481 -4.9078851 0.41386938 9.1476764e-41
7.9100032 -4.9921222 1.0965091 9.1476764e-41
7.8989482 -4.9773793 -0.085930586 9.1476764e-41
7.8080955 -4.9477506 0.40899122 9.1476764e-41
7.8009162 -4.9447765 0.87574637 9.1476764e-41
7.8749113 -4.996079 -0.084331989 9.1476764e-41
7.820096 -4.9936891 0.40241528 9.1476764e-41
7.8021135 -4.982399 0.87264943 9.1476764e-41
7.9048266 -5.0252247 1.0947732 9.1476764e-41
7.8446312 -5.0099387 -0.081008911 9.1476764e-41
7.8256493 -5.0349364 0.39719737 9.1476764e-41
7.8078704 -5.0237179 0.86880922 9.1476764e-41
7.9114208 -5.1048679 1.0890878 9.1476764e-41
7.8329005 -5.0379791 -0.08285737 9.1476764e-41
7.8325834 -5.0774779 0.39163971 9.1476764e-41
7.80024 -5.0536304 0.63366508 9.1476764e-41
7.8150172 -5.0663409 0.86472142 9.1476764e-41
7.9168248 -5.1466289 1.0859432 9.1476764e-41
7.8241582 -5.068397 -0.085567474 9.1476764e-41
7.840404 -5.1187449 0.38608909 9.1476764e-41
7.806664 -5.0936618 0.62914217 9.1476764e-41
7.8183546 -5.1040297 0.86138403 9.1476764e-41
7.9184275 -5.1834188 1.0834099 9.1476764e-41
7.8040533 -5.0878406 -0.084820986 9.1476764e-41
7.8496046 -5.1613202 0.38019896 9.1476764e-41
7.8098125 -5.1313338 0.62520695 9.1476764e-41
7.8184209 -5.1393318 0.85854232 9.1476764e-41
7.8101802 -5.169208 0.62155855 9.1476764e-41
7.8235002 -5.1809692 0.85470223 9.1476764e-41
7.9245801 -5.2239518 1.0802726 9.1476764e-41
7.8529034 -5.2017016 0.37532032 9.1476764e-41
7.9216666 -5.2597837 1.0781348 9.1476764e-41
7.8606606 -5.2458358 0.36942255 9.1476764e-41
7.8181357 -5.2132936 0.61644077 9.1476764e-41
7.8284001 -5.2226911 0.85086179 9.1476764e-41
7.9248405 -5.3006067 1.0751915 9.1476764e-41
7.8574476 -5.2814555 0.36590302 9.1476764e-41
7.8197174 -5.2525392 0.61249852 9.1476764e-41
7.8284721 -5.2607775 0.84776533 9.1476764e-41
7.9247336 -5.3390179 1.0726513 9.1476764e-41
7.8602362 -5.322053 0.36102462 9.1476764e-41
7.8211346 -5.2918477 0.60855627 9.1476764e-41
7.8345714 -5.303895 0.84367716 9.1476764e-41
7.9229188 -5.3762355 1.0703125 9.1476764e-41
7.8578358 -5.3563895 0.35751247 9.1476764e-41
7.8311839 -5.3360758 0.60315144 9.1476764e-41
7.8385072 -5.3432384 0.84009194 9.1476764e-41
7.8568335 -5.3920069 0.35366058 9.1476764e-41
7.8257022 -5.3679228 0.60068631 9.1476764e-41
7.8438239 -5.3839059 0.83625853 9.1476764e-41
7.9158859 -5.4071088 1.0687871 9.1476764e-41
7.9195447 -5.4467854 1.0658514 9.1476764e-41
7.9986997 -5.506134 0.072911978 9.1476764e-41
7.8637199 -5.4365301 0.34776282 9.1476764e-41
7.8220453 -5.4036603 0.59762621 9.1476764e-41
7.8463144 -5.4247656 0.8326664 9.1476764e-41
7.9188313 -5.485394 1.0633118 9.1476764e-41
7.9595695 -5.5137014 0.077805281 9.1476764e-41
7.9008393 -5.5062079 0.33506775 9.1476764e-41
7.8197727 -5.440691 0.59427261 9.1476764e-41
7.8471007 -5.4644337 0.8293221 9.1476764e-41
7.9164219 -5.5227895 1.0609738 9.1476764e-41
7.9159198 -5.5173526 0.083857775 9.1476764e-41
7.8647642 -5.5158081 0.33868623 9.1476764e-41
7.8249655 -5.4840746 0.58944869 9.1476764e-41
7.852304 -5.5079632 0.8252337 9.1476764e-41
7.9138608 -5.5602288 1.0586358 9.1476764e-41
7.8677855 -5.5170465 0.091068983 9.1476764e-41
7.8408132 -5.5353465 0.33958662 9.1476764e-41
7.8132539 -5.5136123 0.58785963 9.1476764e-41
7.8481717 -5.5439548 0.82263386 9.1476764e-41
7.8574123 -5.5479202 0.088634253 9.1476764e-41
7.8451495 -5.5762258 0.3343761 9.1476764e-41
7.8677664 -5.5964274 0.57363176 9.1476764e-41
7.8541694 -5.5862603 0.81855261 9.1476764e-41
7.8405557 -5.571116 0.088136673 9.1476764e-41
7.9157305 -5.6015325 1.0556934 9.1476764e-41
7.9155364 -5.6389656 1.0531614 9.1476764e-41
7.8737745 -5.640151 0.32337928 9.1476764e-41
7.9040737 -5.6669502 0.56263065 9.1476764e-41
7.8512483 -5.6236238 0.81570494 9.1476764e-41
7.9170699 -5.680397 1.0502192 9.1476764e-41
7.8734865 -5.6386456 0.074509859 9.1476764e-41
7.9622021 -5.7553062 0.29878259 9.1476764e-41
7.8887467 -5.6942282 0.56162989 9.1476764e-41
7.8512006 -5.6635966 0.81236136 9.1476764e-41
7.9199438 -5.7231841 1.0470753 9.1476764e-41
7.8821402 -5.6861176 0.067058325 9.1476764e-41
7.8934684 -5.7326574 0.31023741 9.1476764e-41
7.8696575 -5.7135878 0.56181991 9.1476764e-41
7.8518176 -5.6995974 0.80927968 9.1476764e-41
7.9249973 -5.7632799 1.0439454 9.1476764e-41
7.8929367 -5.7309418 0.059620142 9.1476764e-41
7.8901796 -5.7728462 0.30603266 9.1476764e-41
7.8574944 -5.746026 0.55993056 9.1476764e-41
7.8532839 -5.743638 0.8054328 9.1476764e-41
7.8910599 -5.7723413 0.054477453 9.1476764e-41
7.8598647 -5.7887216 0.55540085 9.1476764e-41
7.8587403 -5.7889767 0.8010968 9.1476764e-41
7.9233079 -5.8050084 1.0411983 9.1476764e-41
7.9147573 -5.8348899 0.29571414 9.1476764e-41
7.9331703 -5.8545156 1.0370457 9.1476764e-41
7.9050465 -5.8252425 0.045481205 9.1476764e-41
7.8973756 -5.8609462 0.29491687 9.1476764e-41
7.8575706 -5.8275981 0.55175388 9.1476764e-41
7.8535113 -5.8252954 0.79849815 9.1476764e-41
7.9398046 -5.9015307 1.0332968 9.1476764e-41
7.8802676 -5.8448272 0.046522379 9.1476764e-41
7.9120064 -5.9101367 0.28733218 9.1476764e-41
7.8664541 -5.8715854 0.54635513 9.1476764e-41
7.8609948 -5.8680406 0.79417574 9.1476764e-41
7.9456606 -5.9432511 1.0299652 9.1476764e-41
7.8903623 -5.8899765 0.039084435 9.1476764e-41
7.9062319 -5.9466085 0.28381503 9.1476764e-41
7.8667984 -5.9131932 0.54211986 9.1476764e-41
7.8673825 -5.9149303 0.78959131 9.1476764e-41
7.9548883 -5.9930816 1.0258124 9.1476764e-41
7.9052191 -5.9444618 0.029702187 9.1476764e-41
7.8741097 -5.9587288 0.53671408 9.1476764e-41
7.873291 -5.9592285 0.78526187 9.1476764e-41
7.8931031 -5.9730263 0.027662516 9.1476764e-41
7.9753771 -6.0469766 0.26329827 9.1476764e-41
7.9621387 -6.039001 1.0220702 9.1476764e-41
7.9295888 -6.0510626 0.26861763 9.1476764e-41
7.95121 -6.0715303 0.51687336 9.1476764e-41
7.8735976 -6.0037265 0.78141558 9.1476764e-41
7.9711781 -6.0917654 1.0177087 9.1476764e-41
7.9048371 -6.0277996 0.018659353 9.1476764e-41
7.9098268 -6.0731959 0.26850927 9.1476764e-41
7.8894777 -6.0574536 0.77534771 9.1476764e-41
7.9691143 -6.1299286 1.0151774 9.1476764e-41
7.8960881 -6.1032434 0.26669407 9.1476764e-41
7.8979754 -6.1073942 0.77026653 9.1476764e-41
7.9833937 -6.1855001 1.0102168 9.1476764e-41
7.8920445 -6.137126 0.26319146 9.1476764e-41
7.9194589 -6.1631513 0.51095641 9.1476764e-41
7.9146338 -6.1600108 0.76420498 9.1476764e-41
7.8910241 -6.1826854 0.51201367 9.1476764e-41
7.9881401 -6.2277455 1.0068848 9.1476764e-41
7.9346251 -6.2235975 0.756881 9.1476764e-41
7.9933205 -6.2782698 1.0029268 9.1476764e-41
7.9190545 -6.2487864 0.50219166 9.1476764e-41
7.9539127 -6.2819209 0.75006688 9.1476764e-41
7.9267573 -6.3017917 0.49588907 9.1476764e-41
7.9689102 -6.3418484 0.74348748 9.1476764e-41
7.9658008 -6.3790317 0.48371041 9.1476764e-41
8.0908508 -2.0961041 0.4116466 9.1476764e-41
8.0467949 -2.1066797 0.41875529 9.1476764e-41
8.1574106 -2.1817155 0.81320035 9.1476764e-41
8.0113449 -2.1219831 0.42394292 9.1476764e-41
8.1103516 -2.1878707 0.81916499 9.1476764e-41
8.0311565 -2.1829379 0.62449408 9.1476764e-41
8.0769138 -2.2024522 0.82278562 9.1476764e-41
8.0453005 -2.217598 0.82611656 9.1476764e-41
8.0050573 -2.2274857 0.83091307 9.1476764e-41
8.1906576 -2.5489132 -0.076625347 9.1476764e-41
8.1862698 -2.5829544 0.99571431 9.1476764e-41
8.1818199 -2.5739994 -0.077257872 9.1476764e-41
8.1669407 -2.5981426 -0.076477766 9.1476764e-41
8.1604185 -2.6022537 0.99750924 9.1476764e-41
8.1382408 -2.6179702 0.99908769 9.1476764e-41
8.1592226 -2.6203189 -0.077090979 9.1476764e-41
8.1165762 -2.6372416 1.0004033 9.1476764e-41
8.1501665 -2.6453271 -0.077722073 9.1476764e-41
8.0924196 -2.657012 1.0019559 9.1476764e-41
8.1315346 -2.6677415 -0.075992346 9.1476764e-41
8.0683432 -2.6716177 1.0037826 9.1476764e-41
8.1236277 -2.6898403 -0.076604128 9.1476764e-41
8.0483665 -2.6914141 1.0048554 9.1476764e-41
8.1125927 -2.7139494 -0.076759815 9.1476764e-41
8.0283451 -2.7111244 1.0059292 9.1476764e-41
8.0944281 -2.7347696 -0.075018883 9.1476764e-41
8.0107279 -2.7301879 1.0067673 9.1476764e-41
8.0892038 -2.7598369 -0.076586485 9.1476764e-41
8.08148 -2.7854919 -0.077688932 9.1476764e-41
8.1973257 -4.3918748 1.5691342 9.1476764e-41
8.0906267 -4.3541322 1.5749475 9.1476764e-41
8.083003 -4.3836541 1.5742698 9.1476764e-41
8.0669832 -4.4076176 1.5741332 9.1476764e-41
8.078331 -4.4479942 1.5722747 9.1476764e-41
8.1979475 -4.5193343 -0.07830286 9.1476764e-41
8.1043892 -4.4985671 1.569442 9.1476764e-41
8.1792202 -4.5400362 -0.07757163 9.1476764e-41
8.1183949 -4.5454082 1.567242 9.1476764e-41
8.1681747 -4.5701294 -0.079439163 9.1476764e-41
8.1071301 -4.5689082 1.5669057 9.1476764e-41
8.1567402 -4.5937233 -0.080420971 9.1476764e-41
8.1009998 -4.5996685 1.1060629 9.1476764e-41
8.1595888 -4.6023383 1.101186 9.1476764e-41
8.1060076 -4.6057143 1.5656798 9.1476764e-41
8.1342497 -4.6160154 -0.079273224 9.1476764e-41
8.0836763 -4.6211414 1.1061368 9.1476764e-41
8.0837526 -4.6237712 1.5659862 9.1476764e-41
8.1216946 -4.6409578 -0.080261946 9.1476764e-41
8.0229206 -4.6143069 1.1114268 9.1476764e-41
8.068656 -4.6488819 1.5657438 9.1476764e-41
8.1048698 -4.6650529 -0.080396652 9.1476764e-41
8.0241814 -4.6478438 1.3388586 9.1476764e-41
8.0717916 -4.6826358 1.5644341 9.1476764e-41
8.0899649 -4.6862717 -0.080515146 9.1476764e-41
8.0636625 -4.7148995 1.563643 9.1476764e-41
8.0720062 -4.7116823 -0.080656528 9.1476764e-41
8.0655479 -4.7501526 1.5623257 9.1476764e-41
8.0575686 -4.7353544 -0.081212282 9.1476764e-41
8.0782557 -4.7975912 1.5601255 9.1476764e-41
8.0346928 -4.7572503 -0.080060005 9.1476764e-41
8.0175228 -4.7810869 -0.080191374 9.1476764e-41
8.0804348 -4.8355703 1.558692 9.1476764e-41
8.0812788 -4.8684435 1.5574908 9.1476764e-41
8.0118027 -4.8089552 -0.082891703 9.1476764e-41
8.0869722 -4.9114857 1.5557241 9.1476764e-41
8.0865107 -4.9458799 1.5545154 9.1476764e-41
8.0923424 -4.9850678 1.5528725 9.1476764e-41
8.0975151 -5.0283551 1.5511057 9.1476764e-41
8.1019573 -5.0691218 1.5494552 9.1476764e-41
8.1025105 -5.1049466 1.548138 9.1476764e-41
8.1108837 -5.146853 1.5462778 9.1476764e-41
8.1100664 -5.184217 1.5449531 9.1476764e-41
8.1138515 -5.2252765 1.5433024 9.1476764e-41
8.1174641 -5.2664132 1.5416517 9.1476764e-41
8.1224794 -5.3088503 1.5398924 9.1476764e-41
8.1315727 -5.3524132 1.5379229 9.1476764e-41
8.1326332 -5.3899069 1.5364974 9.1476764e-41
8.1386919 -5.4338288 1.5346289 9.1476764e-41
8.1398716 -5.4741139 1.5330871 9.1476764e-41
8.1486807 -5.5207019 1.531001 9.1476764e-41
8.0848045 -5.5077839 1.2920507 9.1476764e-41
8.1495066 -5.5611362 1.5294592 9.1476764e-41
8.1575251 -5.6052365 1.5274892 9.1476764e-41
8.1622639 -5.6469111 1.525737 9.1476764e-41
8.1625748 -5.6875587 1.5241953 9.1476764e-41
8.1688814 -5.7333465 1.5222179 9.1476764e-41
8.1734495 -5.777956 1.5203493 9.1476764e-41
8.180892 -5.8252101 1.5182626 9.1476764e-41
8.1923857 -5.8737059 1.5159651 9.1476764e-41
8.1978846 -5.9198866 1.5139873 9.1476764e-41
8.1191988 -5.9745073 1.2654045 9.1476764e-41
8.1032114 -6.0448198 1.2625203 9.1476764e-41
8.1132488 -6.0909481 1.2594597 9.1476764e-41
8.1221037 -6.1413298 1.2562294 9.1476764e-41
8.1334801 -6.1917276 1.2528503 9.1476764e-41
8.1465759 -6.249064 1.2489903 9.1476764e-41
8.0537806 -6.2031803 0.49233484 9.1476764e-41
8.1634293 -6.3050337 1.2449883 9.1476764e-41
8.0043945 -6.2019205 0.4978112 9.1476764e-41
8.1997089 -6.3750796 -0.070386171 9.1476764e-41
8.1817837 -6.3978558 -0.070876837 9.1476764e-41
8.1569958 -6.4222269 -0.070614815 9.1476764e-41
8.1448755 -6.4529452 -0.073042393 9.1476764e-41
8.0435886 -6.4118905 0.98977315 9.1476764e-41
8.1141491 -6.4718733 -0.071233749 9.1476764e-41
8.0666199 -6.4749069 0.98360622 9.1476764e-41
8.0960827 -6.497191 -0.072114706 9.1476764e-41
8.0015793 -6.4538498 0.47211981 9.1476764e-41
8.0177441 -6.4701395 0.72786939 9.1476764e-41
8.0808115 -6.5251408 -0.073767424 9.1476764e-41
8.0213785 -6.5195556 0.46316576 9.1476764e-41
8.0542126 -6.5478292 -0.07311511 9.1476764e-41
8.030304 -6.5703697 -0.072841644 9.1476764e-41
8.0118351 -6.5927362 -0.073326826 9.1476764e-41
8.3997707 -2.0176489 -0.072610855 9.1476764e-41
8.3803005 -2.0371418 -0.069932222 9.1476764e-41
8.3785 -2.0646853 -0.071993351 9.1476764e-41
8.3929243 -2.1043437 0.57292402 9.1476764e-41
8.3778906 -2.0943818 -0.074537516 9.1476764e-41
8.3237762 -2.1035898 0.58387864 9.1476764e-41
8.3697147 -2.1163239 -0.07468605 9.1476764e-41
8.3457766 -2.1103387 0.36469638 9.1476764e-41
8.2757463 -2.113709 0.59077859 9.1476764e-41
8.353982 -2.1445777 0.78885663 9.1476764e-41
8.3531046 -2.1384318 -0.072960854 9.1476764e-41
8.3971052 -2.1579082 0.3519063 9.1476764e-41
8.2253389 -2.1243079 0.59800744 9.1476764e-41
8.3070345 -2.1567626 0.79449356 9.1476764e-41
8.3485985 -2.1667492 -0.074557304 9.1476764e-41
8.239583 -2.1558628 0.8036505 9.1476764e-41
8.3347893 -2.1865327 -0.073284626 9.1476764e-41
8.2283068 -2.1795957 0.80377722 9.1476764e-41
8.3161802 -2.2077742 -0.071084499 9.1476764e-41
8.3464375 -2.2540162 0.57025695 9.1476764e-41
8.3259258 -2.2416627 -0.07646656 9.1476764e-41
8.3048286 -2.262893 0.57617116 9.1476764e-41
8.30832 -2.2599199 -0.074245214 9.1476764e-41
8.2967529 -2.2838635 -0.073936701 9.1476764e-41
8.2887249 -2.3092089 -0.074574232 9.1476764e-41
8.2812052 -2.3330886 -0.075201988 9.1476764e-41
8.2736168 -2.3569524 -0.075829268 9.1476764e-41
8.258173 -2.3793001 -0.074571371 9.1476764e-41
8.3936377 -2.4711089 0.97868478 9.1476764e-41
8.2516508 -2.4052925 -0.075680733 9.1476764e-41
8.3631239 -2.4876051 0.98121595 9.1476764e-41
8.2432518 -2.4305291 -0.076316118 9.1476764e-41
8.3228235 -2.5015569 0.98496473 9.1476764e-41
8.227005 -2.4541759 -0.075065851 9.1476764e-41
8.2971573 -2.5163727 0.98702776 9.1476764e-41
8.2143087 -2.4742084 -0.074260473 9.1476764e-41
8.2708521 -2.5325224 0.98908222 9.1476764e-41
8.2188253 -2.5032494 -0.078201294 9.1476764e-41
8.2371893 -2.5505142 0.99184501 9.1476764e-41
8.2017508 -2.5282061 -0.076958418 9.1476764e-41
8.2169189 -2.5673337 0.99317527 9.1476764e-41
8.3961239 -4.2357965 -0.079212189 9.1476764e-41
8.370574 -4.2544775 -0.076776981 9.1476764e-41
8.3581982 -4.2813993 -0.077782393 9.1476764e-41
8.3782997 -4.3365431 1.5632493 9.1476764e-41
8.3466654 -4.3068347 -0.078778505 9.1476764e-41
8.3439236 -4.3495264 1.5642924 9.1476764e-41
8.32096 -4.3252821 -0.076340675 9.1476764e-41
8.3632412 -4.3970051 1.5618818 9.1476764e-41
8.3165646 -4.3573737 -0.079495907 9.1476764e-41
8.2956638 -4.37886 -0.078347206 9.1476764e-41
8.3404789 -4.4174485 1.5621705 9.1476764e-41
8.2968864 -4.4221501 1.5638728 9.1476764e-41
8.2838345 -4.40416 -0.079341412 9.1476764e-41
8.2644463 -4.4265933 -0.078621864 9.1476764e-41
8.2508402 -4.450748 -0.079184532 9.1476764e-41
8.3781805 -4.5775723 1.0849953 9.1476764e-41
8.2362061 -4.4763083 -0.079754829 9.1476764e-41
8.3334684 -4.5835857 1.0882657 9.1476764e-41
8.2182465 -4.4996576 -0.07946372 9.1476764e-41
8.2848206 -4.5845995 1.0921479 9.1476764e-41
8.2559948 -4.5987883 1.0936229 9.1476764e-41
8.2005434 -4.5989013 1.0980942 9.1476764e-41
8.218317 -6.0161428 1.5095004 9.1476764e-41
8.2219706 -6.0640564 1.5075152 9.1476764e-41
8.2538414 -6.1341324 1.503572 9.1476764e-41
8.5714836 -2.0823517 0.32596993 9.1476764e-41
8.502614 -2.0859427 0.55679071 9.1476764e-41
8.5614214 -2.1087587 0.76279306 9.1476764e-41
8.4871397 -2.078845 0.34148431 9.1476764e-41
8.4415493 -2.0921853 0.56603849 9.1476764e-41
8.5001059 -2.1150951 0.77075601 9.1476764e-41
8.4594917 -2.0972815 0.34513736 9.1476764e-41
8.4772539 -2.1369905 0.77260911 9.1476764e-41
8.4275799 -2.1156926 0.34954643 9.1476764e-41
8.4003868 -2.1335959 0.78321183 9.1476764e-41
8.5307579 -4.0140152 -0.077898741 9.1476764e-41
8.5191536 -4.0413165 -0.078910112 9.1476764e-41
8.4948301 -4.0630789 -0.076919794 9.1476764e-41
8.479825 -4.0843163 -0.076622248 9.1476764e-41
8.5871563 -4.1933084 1.558908 9.1476764e-41
8.4679947 -4.1114945 -0.077631474 9.1476764e-41
8.4560785 -4.138648 -0.078640461 9.1476764e-41
8.4399796 -4.161243 -0.078349829 9.1476764e-41
8.4195871 -4.1832132 -0.077207088 9.1476764e-41
8.5495224 -4.2052674 1.5601575 9.1476764e-41
8.5111017 -4.2145205 1.5615249 9.1476764e-41
8.500679 -4.2428999 1.5610528 9.1476764e-41
8.4698029 -4.2586231 1.5618749 9.1476764e-41
8.4107609 -4.2123089 -0.079074383 9.1476764e-41
8.4533796 -4.2812009 1.5618441 9.1476764e-41
8.4359703 -4.3052001 1.5618054 9.1476764e-41
8.4438038 -4.3451667 1.5601491 9.1476764e-41
8.4999084 -4.5520997 1.0765898 9.1476764e-41
8.4600945 -4.5620008 1.0792537 9.1476764e-41
8.4345493 -4.5790262 1.0803221 9.1476764e-41
8.7419891 -2.0302792 0.29874623 9.1476764e-41
8.7982626 -2.0789053 0.51039064 9.1476764e-41
8.713068 -2.0475669 0.30278361 9.1476764e-41
8.6743269 -2.0629654 0.30872297 9.1476764e-41
8.7507191 -2.1205192 0.73640931 9.1476764e-41
8.6157694 -2.0694058 0.3188796 9.1476764e-41
8.6389875 -2.1096227 0.75220847 9.1476764e-41
8.7873755 -4.1419787 1.5518036 9.1476764e-41
8.750598 -4.1533275 1.5530548 9.1476764e-41
8.6991825 -4.1578832 1.5551591 9.1476764e-41
8.655488 -4.1688094 1.5567183 9.1476764e-41
8.6213713 -4.1791148 1.5578753 9.1476764e-41
8.9636135 -4.1405945 1.544101 9.1476764e-41
8.8929653 -4.1352143 1.5473797 9.1476764e-41
8.8380356 -4.1344061 1.5498196 9.1476764e-41
9.1792679 -4.1204214 1.5351979 9.1476764e-41
9.1518326 -4.1407933 1.5357835 9.1476764e-41
9.1278353 -4.163013 1.5361555 9.1476764e-41
9.0447836 -4.1515303 1.5401804 9.1476764e-41
