# .PCD v0.7 - Point Cloud Data file format
VERSION 0.7
FIELDS x y z rgb
SIZE 4 4 4 4
TYPE F F F F
COUNT 1 1 1 1
WIDTH 350
HEIGHT 1
VIEWPOINT 0 0 0 1 0 0 0
POINTS 350
DATA ascii
1.8074089 4.3728981 -0.022783041 1.1755123e-38
1.8215102 4.3751936 -0.027713776 1.1755123e-38
1.8306298 4.3682146 -0.026823282 1.1755123e-38
1.8424982 4.3676715 -0.029809475 1.1755123e-38
1.8524306 4.3621674 -0.029889822 1.1755123e-38
1.8603832 4.3517208 -0.027063847 1.1755123e-38
1.872246 4.3510714 -0.030050755 1.1755123e-38
1.881824 4.3476629 -0.031092644 1.1755123e-38
1.8888303 4.3356237 -0.027296543 1.1755123e-38
1.9050165 4.3424692 -0.0351367 1.1755123e-38
1.9105217 4.3291969 -0.030365705 1.1755123e-38
1.9229642 4.3280334 -0.033358574 1.1755123e-38
1.9568157 4.3649559 -0.060613155 1.1755123e-38
1.9961085 4.2767839 0.084610701 1.1755123e-38
1.9955918 4.2542224 0.094758511 1.1755123e-38
1.9949594 4.2316933 0.10490692 1.1755123e-38
1.9904733 4.2031813 0.1187768 1.1755123e-38
2.0116894 5.3977599 -0.019247532 1.1755123e-38
2.0246806 5.3937683 -0.020140171 1.1755123e-38
2.0384283 5.3893805 -0.021038532 1.1755123e-38
2.0529299 5.3845906 -0.021942854 1.1755123e-38
2.0620131 5.3742099 -0.019618988 1.1755123e-38
2.076503 5.3713598 -0.021321058 1.1755123e-38
2.090203 5.3668094 -0.02222085 1.1755123e-38
2.0983636 5.352684 -0.018296719 1.1755123e-38
2.1136189 5.3513594 -0.020802975 1.1755123e-38
2.1296403 5.3496103 -0.02331543 1.1755123e-38
2.1376796 5.3354115 -0.019391298 1.1755123e-38
2.1521733 5.3343253 -0.021893024 1.1755123e-38
2.1649051 5.325881 -0.021193504 1.1755123e-38
2.1737053 5.3152714 -0.018870592 1.1755123e-38
2.1881058 5.312047 -0.020575523 1.1755123e-38
2.1983376 5.3006215 -0.018264294 1.1755123e-38
2.1960411 5.2667594 -0.0047006607 1.1755123e-38
2.1999919 5.2724457 0.1239785 1.1755123e-38
2.1885173 5.2231874 0.013683796 1.1755123e-38
2.1948419 5.2334228 0.13909853 1.1755123e-38
2.0053906 5.0978146 -0.027787924 1.1755123e-38
2.0143733 5.0872998 -0.02533865 1.1755123e-38
2.0265365 5.0832615 -0.02627039 1.1755123e-38
2.0376782 5.0736089 -0.024677515 1.1755123e-38
2.0442152 5.0601463 -0.020531178 1.1755123e-38
2.0619402 5.0653558 -0.026542664 1.1755123e-38
2.06652 5.0446725 -0.019025564 1.1755123e-38
2.0761001 5.0356407 -0.017421722 1.1755123e-38
2.0889802 5.0330253 -0.019200563 1.1755123e-38
2.105916 5.0364285 -0.024367809 1.1755123e-38
2.1781046 5.1728148 0.035277843 1.1755123e-38
2.1127729 5.0205135 -0.019387245 1.1755123e-38
2.1691179 5.1257839 0.05526638 1.1755123e-38
2.1229455 5.0110016 -0.017789364 1.1755123e-38
2.1564445 5.0723696 0.078470945 1.1755123e-38
2.1390486 5.0126595 -0.022112131 1.1755123e-38
2.1503696 5.0319948 0.095249176 1.1755123e-38
2.1399159 4.9856148 0.1152488 1.1755123e-38
2.1301408 4.9412384 0.0090017319 1.1755123e-38
2.1333899 4.9453955 0.13202989 1.1755123e-38
2.1218474 4.8982677 0.02836442 1.1755123e-38
2.138032 4.9261599 0.13836539 1.1755123e-38
2.1100359 4.8509841 0.050271988 1.1755123e-38
2.1463017 4.9153371 0.14068854 1.1755123e-38
2.1056435 4.816124 0.065407753 1.1755123e-38
2.1516659 4.8977079 0.14622104 1.1755123e-38
2.1656303 4.8941083 0.1445148 1.1755123e-38
2.1755569 4.8864279 0.14523041 1.1755123e-38
2.1838851 4.8775096 0.1467551 1.1755123e-38
2.196909 4.872201 0.14585197 1.1755123e-38
2.0037045 4.7875538 -0.022999287 1.1755123e-38
2.0123539 4.776825 -0.020424366 1.1755123e-38
2.026233 4.7774868 -0.024059534 1.1755123e-38
2.0365286 4.7698593 -0.023260355 1.1755123e-38
2.051079 4.7700744 -0.02690196 1.1755123e-38
2.0572469 4.7564526 -0.022546053 1.1755123e-38
2.0622742 4.7393255 -0.016418695 1.1755123e-38
2.0756977 4.7359371 -0.018289804 1.1755123e-38
2.0999599 4.7777872 0.082231283 1.1755123e-38
2.0799513 4.7191577 -0.012156487 1.1755123e-38
2.0901024 4.7355142 0.10160542 1.1755123e-38
2.081727 4.699625 -0.0042419434 1.1755123e-38
2.0811632 4.6968484 0.11929381 1.1755123e-38
2.0800312 4.6696596 0.0089876652 1.1755123e-38
2.0837765 4.6745062 0.12766039 1.1755123e-38
2.0671363 4.6233492 0.031999588 1.1755123e-38
2.0841029 4.651341 0.13688421 1.1755123e-38
2.0939767 4.643549 0.13764131 1.1755123e-38
2.1047306 4.6373 0.13755202 1.1755123e-38
2.1120992 4.6266913 0.14000678 1.1755123e-38
2.1228027 4.620388 0.13991725 1.1755123e-38
2.13533 4.6171737 0.13813496 1.1755123e-38
2.1426015 4.6065035 0.14058948 1.1755123e-38
2.0078359 4.5211167 -0.028007507 1.1755123e-38
2.0155773 4.5105147 -0.025304079 1.1755123e-38
2.0626545 4.590764 0.047013283 1.1755123e-38
2.0250466 4.5029635 -0.024460554 1.1755123e-38
2.0562043 4.5551357 0.063804865 1.1755123e-38
2.0285389 4.4865599 -0.018033028 1.1755123e-38
2.048049 4.5183878 0.08149147 1.1755123e-38
2.0343485 4.4728642 -0.013469934 1.1755123e-38
2.0430284 4.4859943 0.096508741 1.1755123e-38
2.0293007 4.4408627 0.0022516251 1.1755123e-38
2.0360131 4.4505758 0.11330378 1.1755123e-38
2.0198748 4.4031849 0.021698713 1.1755123e-38
2.0364473 4.4294505 0.12210822 1.1755123e-38
2.0419688 4.4156828 0.12646568 1.1755123e-38
2.1513848 4.5970001 0.14219224 1.1755123e-38
2.1526532 4.575057 0.1505667 1.1755123e-38
2.1672788 4.5767603 0.14624965 1.1755123e-38
2.1791005 4.5737696 0.14447153 1.1755123e-38
2.1905951 4.5688124 0.14353454 1.1755123e-38
2.1992218 4.5591931 0.14513695 1.1755123e-38
2.0208309 4.3819551 0.030912876 1.1755123e-38
2.0107265 4.3425426 0.051287651 1.1755123e-38
2.0428071 4.394237 0.1352663 1.1755123e-38
2.0053349 4.3126593 0.066088438 1.1755123e-38
2.057802 4.3976955 0.12985408 1.1755123e-38
2.0700343 4.3965054 0.12710726 1.1755123e-38
2.0706856 4.3750563 0.13590872 1.1755123e-38
2.0891159 4.382597 0.12782371 1.1755123e-38
2.0990951 4.3763628 0.1277374 1.1755123e-38
2.1071551 4.3670616 0.12942874 1.1755123e-38
2.1101942 4.3524175 0.13468552 1.1755123e-38
2.12642 4.3548293 0.1292603 1.1755123e-38
2.1353531 4.3469744 0.13006234 1.1755123e-38
2.1436787 4.3394709 0.13086939 1.1755123e-38
2.157419 4.3390942 0.127226 1.1755123e-38
2.1692221 4.3356619 0.12536037 1.1755123e-38
2.176522 4.3265734 0.127056 1.1755123e-38
2.1892905 4.3245687 0.12430072 1.1755123e-38
2.1971176 4.3150511 0.12599111 1.1755123e-38
2.2133274 6.062717 -0.019622326 1.1755123e-38
2.2242713 6.0517588 -0.017568111 1.1755123e-38
2.2587969 6.0465536 -0.021371841 1.1755123e-38
2.2727227 6.0423055 -0.022183657 1.1755123e-38
2.2877252 6.0334172 -0.021581888 1.1755123e-38
2.2962823 6.0151038 -0.016668558 1.1755123e-38
2.380538 6.1967072 0.057410955 1.1755123e-38
2.3133578 6.0154338 -0.019637108 1.1755123e-38
2.3673742 6.1301675 0.08086133 1.1755123e-38
2.3266029 6.0051379 -0.018313169 1.1755123e-38
2.3563282 6.0667453 0.10296142 1.1755123e-38
2.3473976 6.0064349 0.12371111 1.1755123e-38
2.3382993 5.9893274 -0.01484561 1.1755123e-38
2.332185 5.9426417 0.0022580624 1.1755123e-38
2.3387468 5.9542704 0.14178932 1.1755123e-38
2.3211319 5.8817182 0.025084496 1.1755123e-38
2.3420625 5.9234791 0.15110481 1.1755123e-38
2.3097394 5.8209038 0.047912836 1.1755123e-38
2.3509145 5.9046006 0.15570855 1.1755123e-38
2.3686509 5.906477 0.1522398 1.1755123e-38
2.3823268 5.8977141 0.15280366 1.1755123e-38
2.3951645 5.8851113 0.15470767 1.1755123e-38
2.2016146 5.6681232 -0.020829678 1.1755123e-38
2.2161982 5.663219 -0.021692753 1.1755123e-38
2.22438 5.6449208 -0.016474247 1.1755123e-38
2.2405083 5.6453352 -0.019612312 1.1755123e-38
2.2963684 5.7589226 0.071466446 1.1755123e-38
2.2518044 5.6336536 -0.017434835 1.1755123e-38
2.2843041 5.6983333 0.094299078 1.1755123e-38
2.2776382 5.6475201 0.11282647 1.1755123e-38
2.2603357 5.5820093 -0.0001540184 1.1755123e-38
2.2682517 5.5959163 0.13208485 1.1755123e-38
2.2516766 5.5325866 0.019519567 1.1755123e-38
2.2652433 5.5577774 0.14560926 1.1755123e-38
2.2410066 5.4758453 0.042224646 1.1755123e-38
2.2786641 5.5489473 0.14621699 1.1755123e-38
2.230196 5.425344 0.062667847 1.1755123e-38
2.2905235 5.5429478 0.14612567 1.1755123e-38
2.3090179 5.5460992 0.14171994 1.1755123e-38
2.3156455 5.5259109 0.14735258 1.1755123e-38
2.3282306 5.5194073 0.14725471 1.1755123e-38
2.3407974 5.5128689 0.1471566 1.1755123e-38
2.3506713 5.4992647 0.14992094 1.1755123e-38
2.3648326 5.4939022 0.14909923 1.1755123e-38
2.3737366 5.4785972 0.15258086 1.1755123e-38
2.3904839 5.4781022 0.14960647 1.1755123e-38
2.2181461 5.3692045 0.085382462 1.1755123e-38
2.2091532 5.3197641 0.105057 1.1755123e-38
2.2004952 5.2137551 0.14508569 1.1755123e-38
2.215524 5.2120981 0.14270568 1.1755123e-38
2.2245004 5.1989474 0.14565039 1.1755123e-38
2.2377722 5.1939402 0.14479136 1.1755123e-38
2.2485552 5.1860266 0.14545941 1.1755123e-38
2.2591579 5.1760612 0.14688241 1.1755123e-38
2.2697213 5.1660714 0.1483053 1.1755123e-38
2.2795229 5.1564541 0.14973378 1.1755123e-38
2.2962689 5.1577477 0.14582992 1.1755123e-38
2.3056722 5.1440263 0.14876842 1.1755123e-38
2.316287 5.1359386 0.14943552 1.1755123e-38
2.3270652 5.1298423 0.14934754 1.1755123e-38
2.3408909 5.1240978 0.14848042 1.1755123e-38
2.3505187 5.1143146 0.14990842 1.1755123e-38
2.3635907 5.1089048 0.14904666 1.1755123e-38
2.3757243 5.1018534 0.14894605 1.1755123e-38
2.3871248 5.0951834 0.14885104 1.1755123e-38
2.3992176 5.0880628 0.14874983 1.1755123e-38
2.2094853 4.8692122 0.14415562 1.1755123e-38
2.2190826 4.8594441 0.14566898 1.1755123e-38
2.2304766 4.8528223 0.14557445 1.1755123e-38
2.2448699 4.8528881 0.14226937 1.1755123e-38
2.2562442 4.84619 0.14217424 1.1755123e-38
2.2703927 4.8441887 0.13966656 1.1755123e-38
2.2820094 4.8393884 0.13877249 1.1755123e-38
2.2914629 4.8294373 0.1402849 1.1755123e-38
2.3037124 4.8241692 0.13938475 1.1755123e-38
2.3143375 4.8177023 0.13929415 1.1755123e-38
2.3249447 4.8112049 0.13920343 1.1755123e-38
2.3304455 4.7949066 0.14393258 1.1755123e-38
2.3474245 4.7973003 0.13900995 1.1755123e-38
2.350894 4.7778611 0.14534819 1.1755123e-38
2.3669052 4.7786078 0.14122927 1.1755123e-38
2.3787 4.7754784 0.13953459 1.1755123e-38
2.3904986 4.7679653 0.13943124 1.1755123e-38
2.2125959 4.5572481 0.14250612 1.1755123e-38
2.2202089 4.5460396 0.14495504 1.1755123e-38
2.2255809 4.5340633 0.14826155 1.1755123e-38
2.2482662 4.5453949 0.13800347 1.1755123e-38
2.2606778 4.5417423 0.13621783 1.1755123e-38
2.2665982 4.5292978 0.13951874 1.1755123e-38
2.2770121 4.5225372 0.13942659 1.1755123e-38
2.2854297 4.5127077 0.14102793 1.1755123e-38
2.2971704 4.5093241 0.13924706 1.1755123e-38
2.3065283 4.5009594 0.1400013 1.1755123e-38
2.3178592 4.4955902 0.13906157 1.1755123e-38
2.3249502 4.4864769 0.14067352 1.1755123e-38
2.3348317 4.4776297 0.14142203 1.1755123e-38
2.3461063 4.4721675 0.14048171 1.1755123e-38
2.3604259 4.4711633 0.13699925 1.1755123e-38
2.3715086 4.4679441 0.13522208 1.1755123e-38
2.3823409 4.4604554 0.13512254 1.1755123e-38
2.3944438 4.4586568 0.13249743 1.1755123e-38
2.4177775 6.8932629 -0.0090050697 1.1755123e-38
2.4305489 6.8776946 -0.0059757233 1.1755123e-38
2.4442728 6.8616738 -0.0029535294 1.1755123e-38
2.4683883 6.8762398 -0.010605335 1.1755123e-38
2.4808567 6.8544483 -0.0057044029 1.1755123e-38
2.4854836 6.817359 0.0048627853 1.1755123e-38
2.5170634 6.8885446 0.14402199 1.1755123e-38
2.5329621 6.8775167 0.1450671 1.1755123e-38
2.5457542 6.8677835 0.14613378 1.1755123e-38
2.5651453 6.8592868 0.14599538 1.1755123e-38
2.5804338 6.8525329 0.14588571 1.1755123e-38
2.5954092 6.8395867 0.14751446 1.1755123e-38
2.4861579 6.7715759 0.018575191 1.1755123e-38
2.4684865 6.6923089 0.044887543 1.1755123e-38
2.4499991 6.5988417 0.075569391 1.1755123e-38
2.4347446 6.5246348 0.099992752 1.1755123e-38
2.4163923 6.4392891 0.12817919 1.1755123e-38
2.4069672 6.3750796 -0.0041730404 1.1755123e-38
2.4140122 6.3883348 0.14378119 1.1755123e-38
2.404727 6.3326855 0.0098569393 1.1755123e-38
2.4140153 6.3508291 0.155002 1.1755123e-38
2.424474 6.3293724 0.15991271 1.1755123e-38
2.4393024 6.3225622 0.15980422 1.1755123e-38
2.453316 6.3139868 0.16032469 1.1755123e-38
2.468224 6.3049431 0.16083813 1.1755123e-38
2.4856339 6.2988596 0.16008615 1.1755123e-38
2.5010774 6.2957487 0.1587249 1.1755123e-38
2.5208111 6.2968554 0.15546179 1.1755123e-38
2.5340059 6.2841973 0.15723252 1.1755123e-38
2.548708 6.2770815 0.15712214 1.1755123e-38
2.5626454 6.2660613 0.15826333 1.1755123e-38
2.5791264 6.2579637 0.15813851 1.1755123e-38
2.5929141 6.2490201 0.15865684 1.1755123e-38
2.4016204 4.7608352 0.13933349 1.1755123e-38
2.4120684 4.7540946 0.13924146 1.1755123e-38
2.4231486 4.746901 0.13914335 1.1755123e-38
2.4372044 4.744278 0.13663113 1.1755123e-38
2.4506152 4.742033 0.13412428 1.1755123e-38
2.4546063 4.7240238 0.13965857 1.1755123e-38
2.4666092 4.7182298 0.13875508 1.1755123e-38
2.4854383 4.7254486 0.13142443 1.1755123e-38
2.4950373 4.714561 0.13292873 1.1755123e-38
2.5059998 4.7071209 0.13282907 1.1755123e-38
2.5179703 4.7011623 0.13192427 1.1755123e-38
2.5255415 4.6915174 0.13344586 1.1755123e-38
2.5401914 4.6880665 0.13092494 1.1755123e-38
2.5477109 4.6783757 0.13244641 1.1755123e-38
2.5581565 4.6688299 0.13314497 1.1755123e-38
2.5704496 4.66465 0.13143992 1.1755123e-38
2.5812638 4.6569867 0.13133919 1.1755123e-38
2.5897269 4.6487055 0.13205516 1.1755123e-38
2.4042113 4.4496093 0.13324475 1.1755123e-38
2.4169104 4.4473128 0.13061333 1.1755123e-38
2.4291689 4.4430666 0.12882364 1.1755123e-38
2.4381323 4.436677 0.12873971 1.1755123e-38
2.4488664 4.4289784 0.12863874 1.1755123e-38
2.459444 4.4235783 0.12770128 1.1755123e-38
2.4680138 4.4128771 0.12929523 1.1755123e-38
2.4780815 4.4055185 0.12919939 1.1755123e-38
2.4922945 4.406311 0.12487626 1.1755123e-38
2.6032553 4.6435089 0.13033748 1.1755123e-38
2.6123059 4.6347194 0.13104725 1.1755123e-38
2.621515 4.6235061 0.13255024 1.1755123e-38
2.634362 4.6186514 0.1308378 1.1755123e-38
2.6416216 4.6087694 0.13235867 1.1755123e-38
2.6528952 4.6004314 0.13225067 1.1755123e-38
2.7523141 4.6225605 0.34580517 1.1755123e-38
2.7643576 4.6132793 0.46595764 1.1755123e-38
2.6656992 4.5954647 0.13053739 1.1755123e-38
2.6750607 4.5884552 0.13044715 1.1755123e-38
2.6873691 4.5814762 0.12953293 1.1755123e-38
2.697315 4.5739384 0.12943614 1.1755123e-38
2.7061329 4.5649147 0.13014483 1.1755123e-38
2.7183797 4.5578279 0.12923002 1.1755123e-38
2.7394495 4.5838165 0.23826075 1.1755123e-38
2.7249131 4.5458488 0.13154984 1.1755123e-38
2.7471507 4.5732036 0.23968875 1.1755123e-38
2.7520609 4.5780239 0.35926795 1.1755123e-38
2.7663648 4.5950875 0.47059143 1.1755123e-38
2.7358789 4.5396552 0.13064682 1.1755123e-38
2.7491596 4.5552621 0.24493229 1.1755123e-38
2.7597182 4.5673561 0.36060905 1.1755123e-38
2.770596 4.5798898 0.47387338 1.1755123e-38
2.748059 4.5324659 0.1297313 1.1755123e-38
2.7591319 4.5451288 0.24558532 1.1755123e-38
2.7662816 4.5527601 0.36337709 1.1755123e-38
2.7817869 4.5711498 0.47376239 1.1755123e-38
2.7578678 4.5247583 0.12963367 1.1755123e-38
2.770118 4.5388474 0.24472404 1.1755123e-38
2.7784534 4.5479422 0.36183941 1.1755123e-38
2.7928722 4.5648336 0.47298729 1.1755123e-38
2.7693982 4.5179777 0.12872386 1.1755123e-38
2.7828486 4.5334978 0.24309337 1.1755123e-38
2.7912352 4.5425959 0.36029518 1.1755123e-38
2.7987368 4.550602 0.47558725 1.1755123e-38
2.7825751 4.5145159 0.12620795 1.1755123e-38
2.7984016 4.5329404 0.23917854 1.1755123e-38
2.7895215 4.5019293 0.12852168 1.1755123e-38
2.854573 4.7587967 0.152156 1.1755123e-38
2.8698881 4.6012239 0.19861877 1.1755123e-38
2.9007266 4.6160455 0.43402314 1.1755123e-38
2.8068719 4.5420828 0.35659742 1.1755123e-38
2.8144503 4.5501308 0.4721067 1.1755123e-38
2.8301222 4.5497704 0.34857357 1.1755123e-38
2.8343208 4.5535192 0.46659029 1.1755123e-38
2.8015335 4.4969635 0.12681115 1.1755123e-38
2.8147531 4.4909725 0.12508821 1.1755123e-38
2.8279037 4.4873447 0.12257099 1.1755123e-38
2.8422134 4.4850879 0.11924744 1.1755123e-38
2.8542106 4.4799485 0.11753559 1.1755123e-38
2.8633103 4.4700317 0.11823606 1.1755123e-38
2.8723762 4.4600921 0.11893654 1.1755123e-38
2.8808346 4.4482203 0.12043703 1.1755123e-38
2.890389 4.4425554 0.11954331 1.1755123e-38
2.9011388 4.4334364 0.11943078 1.1755123e-38
2.9142313 4.4270716 0.11770523 1.1755123e-38
2.9273131 4.4254885 0.11439145 1.1755123e-38
2.9392021 4.4176407 0.11347163 1.1755123e-38
2.9528739 4.4130363 0.11094463 1.1755123e-38
2.9617379 4.4028587 0.11164391 1.1755123e-38
