# .PCD v0.7 - Point Cloud Data file format
VERSION 0.7
FIELDS x y z rgb
SIZE 4 4 4 4
TYPE F F F F
COUNT 1 1 1 1
WIDTH 241
HEIGHT 1
VIEWPOINT 0 0 0 1 0 0 0
POINTS 241
DATA ascii
18.444254 3.5344803 1.185955 2.3509528e-38
18.417583 3.4784286 1.1871805 2.3509528e-38
18.40757 3.4659448 2.4850614 2.3509528e-38
18.414932 3.422461 1.1872025 2.3509528e-38
18.526691 3.4334114 1.6193161 2.3509528e-38
18.408865 3.4105451 2.4844685 2.3509528e-38
18.422016 3.3678048 1.1867342 2.3509528e-38
18.521919 3.3769009 1.619154 2.3509528e-38
18.522516 3.3732653 2.052717 2.3509528e-38
18.41198 3.3554127 2.4839177 2.3509528e-38
18.441233 3.3114014 1.1856492 2.3509528e-38
18.523926 3.3143213 2.0522344 2.3509528e-38
18.423265 3.2980602 2.4835055 2.3509528e-38
18.441647 3.2591588 1.185504 2.3509528e-38
18.553535 3.2691269 1.6177495 2.3509528e-38
18.526344 3.2621005 2.0518026 2.3509528e-38
18.429621 3.2466094 2.4830658 2.3509528e-38
18.441912 3.2069323 1.1853595 2.3509528e-38
18.553833 3.2165928 1.617462 2.3509528e-38
18.534575 3.2105951 2.0513558 2.3509528e-38
18.425903 3.1939595 2.4824204 2.3509528e-38
18.450714 3.1492078 1.184767 2.3509528e-38
18.564665 3.158752 1.6168617 2.3509528e-38
18.539438 3.1521273 2.0508647 2.3509528e-38
18.438673 3.136759 2.4820504 2.3509528e-38
18.453909 3.1038852 1.1844815 2.3509528e-38
18.571861 3.1136069 1.6164237 2.3509528e-38
18.540667 3.1063702 2.0504894 2.3509528e-38
18.439873 3.0912533 2.4815845 2.3509528e-38
18.452461 3.045012 1.1843824 2.3509528e-38
18.576408 3.0550287 1.6159792 2.3509528e-38
18.553156 3.0487733 2.049978 2.3509528e-38
18.446362 3.0333188 2.481092 2.3509528e-38
18.460413 2.9904604 1.1838188 2.3509528e-38
18.576448 2.9992576 1.6156664 2.3509528e-38
18.555174 2.9932902 2.0495212 2.3509528e-38
18.448345 2.978158 2.480545 2.3509528e-38
18.475473 2.943162 1.1829156 2.3509528e-38
18.589563 2.9514499 1.6150464 2.3509528e-38
18.554359 2.9440823 2.0491254 2.3509528e-38
18.455458 2.9300671 2.4801764 2.3509528e-38
18.481462 2.8851023 1.1824236 2.3509528e-38
18.589622 2.8924291 1.6147072 2.3509528e-38
18.566343 2.8863907 2.048615 2.3509528e-38
18.459452 2.8718829 2.4796443 2.3509528e-38
18.492598 2.8340693 1.1816907 2.3509528e-38
18.592833 2.8403101 1.6143198 2.3509528e-38
18.565567 2.8339481 2.048193 2.3509528e-38
18.460634 2.819941 2.4791262 2.3509528e-38
18.49365 2.7820308 1.1814517 2.3509528e-38
18.58993 2.7876136 1.614089 2.3509528e-38
18.570614 2.7820978 2.0477548 2.3509528e-38
18.467644 2.7685785 2.4787314 2.3509528e-38
18.491177 2.7231731 1.1813564 2.3509528e-38
18.597431 2.7293849 1.613544 2.3509528e-38
18.572138 2.7233799 2.0472736 2.3509528e-38
18.475109 2.710743 2.4782825 2.3509528e-38
18.567207 2.6673751 2.0468376 2.3509528e-38
18.480112 2.6559248 2.4778204 2.3509528e-38
18.585455 2.6199775 2.0463881 2.3509528e-38
18.482401 2.6073709 2.4773724 2.3509528e-38
18.483112 2.552197 2.47683 2.3509528e-38
18.489901 2.4942904 2.4763827 2.3509528e-38
18.493757 2.4458845 2.4759767 2.3509528e-38
18.500212 2.3879337 2.4755306 2.3509528e-38
18.510471 2.3302431 2.4751656 2.3509528e-38
18.509911 2.2815075 2.4746799 2.3509528e-38
18.511812 2.2372761 1.1781842 2.3509528e-38
18.511644 2.2264559 2.4741812 2.3509528e-38
18.50342 2.1815739 1.1783221 2.3509528e-38
18.529177 2.1724153 2.4740055 2.3509528e-38
18.498455 2.1326327 1.178316 2.3509528e-38
18.526203 2.1235447 2.4734809 2.3509528e-38
18.503706 2.0778503 1.1777601 2.3509528e-38
18.537451 2.0690379 2.4731846 2.3509528e-38
18.586756 2.0241017 1.1732996 2.3509528e-38
18.538729 2.0106933 2.472661 2.3509528e-38
18.599327 1.975955 1.1723986 2.3509528e-38
18.549309 1.9625754 2.4724188 2.3509528e-38
18.54426 1.9039135 2.471776 2.3509528e-38
18.556858 1.8493509 2.4715207 2.3509528e-38
18.559025 1.8007717 2.4711194 2.3509528e-38
18.569321 1.7460296 2.4708247 2.3509528e-38
18.565044 1.691005 2.0389349 2.3509528e-38
18.565588 1.6874733 2.4702244 2.3509528e-38
18.569441 1.6357 2.4698374 2.3509528e-38
18.584705 1.584573 2.038002 2.3509528e-38
18.581247 1.5809191 2.4695833 2.3509528e-38
18.580265 1.5325022 2.0375962 2.3509528e-38
18.588802 1.5292048 2.4692764 2.3509528e-38
18.590216 1.4772987 2.4688509 2.3509528e-38
18.589634 1.418855 2.468333 2.3509528e-38
18.619474 2.57094 1.6119955 2.3509528e-38
18.600143 2.5656667 2.0458953 2.3509528e-38
18.600981 2.5069036 2.0454161 2.3509528e-38
18.630184 2.4638247 1.6110427 2.3509528e-38
18.610844 2.4586716 2.0449901 2.3509528e-38
18.630692 2.4049854 1.610657 2.3509528e-38
18.613338 2.4000483 2.0445061 2.3509528e-38
18.640984 2.3468776 1.6100099 2.3509528e-38
18.625622 2.3421426 2.0439928 2.3509528e-38
18.650419 2.2984848 1.6094447 2.3509528e-38
18.627075 2.2932391 2.0435915 2.3509528e-38
18.666145 2.243937 1.6086679 2.3509528e-38
18.644798 2.2388959 2.0430875 2.3509528e-38
18.667747 2.1884179 1.6082587 2.3509528e-38
18.646395 2.183445 2.0426326 2.3509528e-38
18.672779 2.1396611 1.6077992 2.3509528e-38
18.645435 2.1343834 2.0422385 2.3509528e-38
18.680059 2.0844815 1.6072332 2.3509528e-38
18.648718 2.0790582 2.0417783 2.3509528e-38
18.683361 2.0257878 1.6067457 2.3509528e-38
18.654011 2.020577 2.0412855 2.3509528e-38
18.683975 1.9767644 1.6063929 2.3509528e-38
18.660612 1.9719468 2.040868 2.3509528e-38
18.690933 1.9182552 1.605801 2.3509528e-38
18.66357 1.9133198 2.0403824 2.3509528e-38
18.689569 1.8626068 1.6054478 2.3509528e-38
18.678185 1.8584924 2.0398858 2.3509528e-38
18.695747 1.8138459 1.6049378 2.3509528e-38
18.676371 1.8094182 2.0394945 2.3509528e-38
18.682087 1.7577198 1.6049035 2.3509528e-38
18.678688 1.7540025 2.0390372 2.3509528e-38
18.608442 1.6961809 1.6064334 2.3509528e-38
18.63228 1.6449716 1.6054223 2.3509528e-38
18.616871 1.6408806 2.0383427 2.3509528e-38
18.626106 1.5894296 1.6051801 2.3509528e-38
18.629667 1.5374684 1.6046999 2.3509528e-38
18.671059 1.4864811 1.6032097 2.3509528e-38
18.629663 1.4818567 2.0370085 2.3509528e-38
18.649677 1.4308717 1.166404 2.3509528e-38
18.648853 1.3754872 1.1660514 2.3509528e-38
18.727627 1.3734877 1.6008377 2.3509528e-38
18.708241 1.3695503 2.0358164 2.3509528e-38
18.6008 1.3638984 2.4680798 2.3509528e-38
18.673775 1.3238168 1.1644254 2.3509528e-38
18.734583 1.3212888 1.6002506 2.3509528e-38
18.721197 1.3175106 2.0353482 2.3509528e-38
18.601751 1.3119595 2.4676557 2.3509528e-38
18.741484 1.2625116 1.5996103 2.3509528e-38
18.7201 1.2586688 2.0348754 2.3509528e-38
18.604649 1.2535526 2.4672184 2.3509528e-38
18.647324 1.21592 1.1649506 2.3509528e-38
18.746096 1.2134885 1.5991038 2.3509528e-38
18.722712 1.2096825 2.0344691 2.3509528e-38
18.609255 1.2048943 2.4669006 2.3509528e-38
18.629854 1.1636808 1.1654286 2.3509528e-38
18.748606 1.161153 1.5986243 2.3509528e-38
18.739222 1.157534 2.0339875 2.3509528e-38
18.617762 1.1529982 2.4666352 2.3509528e-38
18.672199 1.1053811 1.1628476 2.3509528e-38
18.751005 1.1022594 1.5980921 2.3509528e-38
18.739622 1.0986639 2.033509 2.3509528e-38
18.61816 1.0945145 2.4661601 2.3509528e-38
18.682396 1.0499982 1.1618965 2.3509528e-38
18.755213 1.0466304 1.5975335 2.3509528e-38
18.743832 1.0430726 2.0330436 2.3509528e-38
18.626366 1.0392959 2.4658687 2.3509528e-38
18.694429 1.0010815 1.160898 2.3509528e-38
18.757259 0.99752623 1.5970819 2.3509528e-38
18.747879 0.99400133 2.0326314 2.3509528e-38
18.630411 0.99053538 2.4655521 2.3509528e-38
18.716299 0.9455424 1.1593444 2.3509528e-38
18.763155 0.94185066 1.5964704 2.3509528e-38
18.765778 0.93831766 2.0321159 2.3509528e-38
18.640308 0.9352293 2.4653006 2.3509528e-38
18.773489 0.87931371 2.0316103 2.3509528e-38
18.640022 0.87667584 2.4648273 2.3509528e-38
18.70764 0.83779991 1.1588753 2.3509528e-38
18.773108 0.83016664 2.0312135 2.3509528e-38
18.647642 0.82780838 2.4645896 2.3509528e-38
18.707014 0.77902073 1.1584014 2.3509528e-38
18.799841 0.77437574 1.5940998 2.3509528e-38
18.760479 0.77133787 2.0307822 2.3509528e-38
18.649017 0.76920766 2.4641564 2.3509528e-38
18.700212 0.72033346 1.1582298 2.3509528e-38
18.787033 0.7154938 1.5939472 2.3509528e-38
18.767666 0.71228027 2.030278 2.3509528e-38
18.660206 0.71044153 2.4639187 2.3509528e-38
18.707443 0.67449558 1.1574597 2.3509528e-38
18.798265 0.66937572 1.5932547 2.3509528e-38
18.780903 0.66617548 2.0298569 2.3509528e-38
18.663448 0.66478014 2.46363 2.3509528e-38
18.720284 0.61543071 1.1562831 2.3509528e-38
18.775761 0.60726047 2.029398 2.3509528e-38
18.66831 0.60602874 2.4632757 2.3509528e-38
18.725027 0.55973959 1.1555352 2.3509528e-38
18.792507 0.55112505 2.028883 2.3509528e-38
18.673065 0.55050218 2.4629478 2.3509528e-38
18.717802 0.51086879 1.1554449 2.3509528e-38
18.787266 0.50203526 2.0285041 2.3509528e-38
18.685825 0.50124967 2.4628282 2.3509528e-38
18.724232 0.45509386 1.1545972 2.3509528e-38
18.7957 0.44600141 2.0280199 2.3509528e-38
18.690268 0.44563818 2.4625008 2.3509528e-38
18.726397 0.39613569 1.1539254 2.3509528e-38
18.686443 0.38699573 2.4619932 2.3509528e-38
18.742697 0.34647882 1.1526259 2.3509528e-38
18.698772 0.33758664 2.4618735 2.3509528e-38
18.740528 0.28759193 1.1521566 2.3509528e-38
18.700603 0.27869833 2.4614825 2.3509528e-38
18.738577 0.23852491 1.1517661 2.3509528e-38
18.710646 0.22925431 2.4613245 2.3509528e-38
18.754175 0.18213874 1.1504148 2.3509528e-38
18.708286 0.1737482 2.4608834 2.3509528e-38
18.787558 0.12481672 1.1481533 2.3509528e-38
18.709757 0.11806101 2.4605198 2.3509528e-38
18.722879 0.058489978 2.4603612 2.3509528e-38
18.716364 0.0096935034 2.4598966 2.3509528e-38
18.73731 -0.04716754 2.4599178 2.3509528e-38
18.753901 -0.10719955 2.459836 2.3509528e-38
18.760923 -0.15690327 2.4596403 2.3509528e-38
18.771173 -0.21673572 2.4594436 2.3509528e-38
18.75552 -0.271608 2.4587767 2.3509528e-38
18.76786 -0.32509923 2.4586704 2.3509528e-38
18.785791 -0.3823868 2.4586525 2.3509528e-38
18.815855 0.55407035 1.5917931 2.3509528e-38
18.818609 0.504704 1.5912905 2.3509528e-38
18.817045 0.44886714 1.5908437 2.3509528e-38
18.823202 0.38949186 1.5901549 2.3509528e-38
18.801861 0.38669646 2.0275173 2.3509528e-38
18.829519 0.33993196 1.5895449 2.3509528e-38
18.806187 0.33726537 2.0271013 2.3509528e-38
18.83733 0.28039563 1.5888023 2.3509528e-38
18.812004 0.27788204 2.0265994 2.3509528e-38
18.855347 0.23026377 1.5878673 2.3509528e-38
18.822035 0.22814447 2.0261602 2.3509528e-38
18.854965 0.17423159 1.5873682 2.3509528e-38
18.831648 0.17177606 2.0256691 2.3509528e-38
18.864403 0.11772788 1.5865982 2.3509528e-38
18.841093 0.11534369 2.025178 2.3509528e-38
18.80065 0.064996123 1.1468763 2.3509528e-38
18.871508 0.057966232 1.5858562 2.3509528e-38
18.844212 0.055858374 2.0246849 2.3509528e-38
18.868967 0.0085611939 1.5854651 2.3509528e-38
18.845669 0.0063182712 2.0242782 2.3509528e-38
18.871918 -0.04775548 1.5848589 2.3509528e-38
18.856613 -0.050370812 2.0237796 2.3509528e-38
18.886482 -0.10809553 1.5839 2.3509528e-38
18.865198 -0.11030877 2.0232632 2.3509528e-38
18.866219 -0.15993822 2.0228574 2.3509528e-38
