# .PCD v0.7 - Point Cloud Data file format
VERSION 0.7
FIELDS x y z rgb
SIZE 4 4 4 4
TYPE F F F F
COUNT 1 1 1 1
WIDTH 53
HEIGHT 1
VIEWPOINT 0 0 0 1 0 0 0
POINTS 53
DATA ascii
7.1021285 22.98271 1.1755464 1.2472041e-38
7.1364899 22.877371 0.64311278 1.2472041e-38
7.1207962 22.819048 1.1811413 1.2472041e-38
7.0512614 22.626251 0.12890017 1.2472041e-38
7.1545224 22.701281 0.65292239 1.2472041e-38
7.1385775 22.642836 1.1871965 1.2472041e-38
7.1066422 22.566122 0.13193023 1.2472041e-38
7.1366348 22.468012 0.13883102 1.2472041e-38
7.1621451 22.534731 0.66242814 1.2472041e-38
7.1491337 22.485643 1.1926866 1.2472041e-38
7.1583958 22.322054 0.14983249 1.2472041e-38
7.1744933 22.360111 0.67227006 1.2472041e-38
7.1619024 22.312782 1.1986939 1.2472041e-38
7.1792068 22.163582 0.16185057 1.2472041e-38
7.1914897 22.19002 0.68171334 1.2472041e-38
7.1799674 22.146357 1.2043617 1.2472041e-38
7.1829438 21.993879 0.17532575 1.2472041e-38
7.189961 21.995138 1.2096225 1.2472041e-38
7.197659 21.834974 0.18754828 1.2472041e-38
7.216414 21.678667 0.19940567 1.2472041e-38
7.2372007 21.728798 0.70725095 1.2472041e-38
7.222476 21.677248 1.2204399 1.2472041e-38
7.2191606 21.502428 0.21338856 1.2472041e-38
7.2505908 21.582365 0.71536422 1.2472041e-38
7.2383194 21.538248 1.2251267 1.2472041e-38
7.2585416 21.42285 0.72436762 1.2472041e-38
7.2343197 21.363884 0.22391665 1.2472041e-38
7.2500963 21.389912 1.2302182 1.2472041e-38
7.2531247 21.215382 0.23509407 1.2472041e-38
7.2700305 21.253397 0.73383594 1.2472041e-38
7.267489 21.237253 1.2353476 1.2472041e-38
7.2591014 21.077662 0.24584734 1.2472041e-38
7.284164 21.137959 0.74010491 1.2472041e-38
7.2706566 21.091646 1.2404922 1.2472041e-38
7.2865577 20.957411 0.25443554 1.2472041e-38
7.3048973 20.998722 0.74755251 1.2472041e-38
7.2918758 20.954201 1.2449858 1.2472041e-38
7.3202043 20.866508 0.26045251 1.2472041e-38
7.319984 20.857088 0.7552799 1.2472041e-38
7.3109202 20.823725 1.2492642 1.2472041e-38
7.3645039 20.816088 0.26285756 1.2472041e-38
7.3225093 20.694374 0.76455605 1.2472041e-38
7.3209429 20.681477 1.2541319 1.2472041e-38
7.3423147 20.569765 0.77114892 1.2472041e-38
7.335042 20.541792 1.2588193 1.2472041e-38
7.357347 20.44463 0.77789426 1.2472041e-38
7.3449926 20.403481 1.2635328 1.2472041e-38
7.3679895 20.299631 0.78588939 1.2472041e-38
7.3604417 20.27145 1.2679046 1.2472041e-38
7.3835764 20.169645 0.79287231 1.2472041e-38
7.3758898 20.141367 1.2721992 1.2472041e-38
7.3996091 20.03286 0.80021727 1.2472041e-38
7.3946738 20.011932 1.2763938 1.2472041e-38
