# .PCD v0.7 - Point Cloud Data file format
VERSION 0.7
FIELDS x y z rgb
SIZE 4 4 4 4
TYPE F F F F
COUNT 1 1 1 1
WIDTH 103
HEIGHT 1
VIEWPOINT 0 0 0 1 0 0 0
POINTS 103
DATA ascii
-4.5687914 -13.316166 0.24159563 3.5733111e-43
-4.5702891 -13.327746 0.59630632 3.5733111e-43
-4.5881462 -13.230781 0.2511847 3.5733111e-43
-4.5970631 -13.272007 0.95183873 3.5733111e-43
-4.5508256 -13.57382 0.57287681 3.5733111e-43
-4.5522285 -13.585314 0.92918837 3.5733111e-43
-4.5758719 -13.486734 0.22095728 3.5733111e-43
-4.5768533 -13.496842 0.57972515 3.5733111e-43
-4.5794516 -13.512002 0.93420506 3.5733111e-43
-4.5573273 -13.730157 0.55751336 3.5733111e-43
-4.5634928 -13.757201 0.9161166 3.5733111e-43
-4.4943476 -13.840081 0.18109679 3.5733111e-43
-4.5418334 -13.843125 0.91004109 3.5733111e-43
-4.4528184 -14.179601 0.14149189 3.5733111e-43
-4.4775662 -14.097837 0.15060627 3.5733111e-43
-4.4821548 -14.120852 0.52119303 3.5733111e-43
-4.5039201 -14.013375 0.15998077 3.5733111e-43
-4.5146093 -14.063853 0.893924 3.5733111e-43
-4.4374838 -14.285356 0.12919676 3.5733111e-43
-4.4548135 -14.352794 0.49915028 3.5733111e-43
-4.480907 -14.28302 0.5053829 3.5733111e-43
-4.4852591 -14.305452 0.87623525 3.5733111e-43
-4.4122005 -14.532096 0.10015893 3.5733111e-43
-4.4254289 -14.404498 0.11517882 3.5733111e-43
-4.4624171 -14.54113 0.48055887 3.5733111e-43
-4.4634666 -14.552582 0.85797048 3.5733111e-43
-4.4379907 -14.630859 0.47231257 3.5733111e-43
-4.4314284 -14.615621 0.85371733 3.5733111e-43
-4.4556856 -14.708997 1.2269658 3.5733111e-43
-4.4106526 -14.882387 0.44825327 3.5733111e-43
-4.407495 -14.879122 0.83419621 3.5733111e-43
-4.4280968 -14.961466 1.2138271 3.5733111e-43
-4.4389582 -14.802193 0.4555074 3.5733111e-43
-4.438447 -14.808391 0.83906615 3.5733111e-43
-4.4054441 -15.059273 0.43100917 3.5733111e-43
-4.4071231 -15.07365 0.81950414 3.5733111e-43
-4.4138031 -15.106264 1.206267 3.5733111e-43
-4.378015 -15.316158 0.40634871 3.5733111e-43
-4.3781796 -15.325262 0.80089867 3.5733111e-43
-4.3821731 -15.348627 1.1936617 3.5733111e-43
-4.3987904 -15.217985 1.2004632 3.5733111e-43
-4.2149091 -15.479231 -0.009278059 3.5733111e-43
-4.2706933 -15.481304 -0.01095295 3.5733111e-43
-4.3245177 -15.47551 -0.011642218 3.5733111e-43
-4.3493643 -15.579002 0.38107824 3.5733111e-43
-4.3495941 -15.588617 0.78136194 3.5733111e-43
-4.3464508 -15.585335 1.1813669 3.5733111e-43
-4.3703966 -15.486017 -0.014117718 3.5733111e-43
-4.3588033 -15.451 0.39348245 3.5733111e-43
-4.345727 -15.410242 0.79493129 3.5733111e-43
-4.3583636 -15.466557 1.1875895 3.5733111e-43
-4.2773027 -15.741171 0.77079761 3.5733111e-43
-4.2992125 -15.600271 0.37998259 3.5733111e-43
-4.2979264 -15.604113 0.78091133 3.5733111e-43
-4.3288183 -15.732307 1.173684 3.5733111e-43
-4.2912207 -15.984318 0.34228539 3.5733111e-43
-4.2881188 -15.981176 0.75242889 3.5733111e-43
-4.2890348 -15.993919 1.1600549 3.5733111e-43
-4.3056493 -15.843111 0.35592914 3.5733111e-43
-4.3127751 -15.889006 1.1654623 3.5733111e-43
-4.2890525 -16.177706 0.32324648 3.5733111e-43
-4.2836246 -16.165268 0.73850417 3.5733111e-43
-4.2879405 -16.191847 1.149503 3.5733111e-43
-4.2877431 -16.378942 0.30340374 3.5733111e-43
-4.2591949 -16.486307 0.29332757 3.5733111e-43
-4.2563233 -16.484129 0.71461594 3.5733111e-43
-4.2534947 -16.48209 1.1342635 3.5733111e-43
-4.2924576 -16.407545 0.71997023 3.5733111e-43
-4.2895966 -16.405411 1.1380889 3.5733111e-43
-4.2500563 -16.686676 0.69927955 3.5733111e-43
-4.2500877 -16.696581 1.1228237 3.5733111e-43
-4.217555 -16.997438 0.24351811 3.5733111e-43
-4.214448 -16.994297 0.67628992 3.5733111e-43
-4.20859 -16.979368 1.1079919 3.5733111e-43
-4.2408218 -16.885666 0.25416839 3.5733111e-43
-4.2400155 -16.902227 1.1118975 3.5733111e-43
-4.2044401 -17.184349 0.22523558 3.5733111e-43
-4.2050052 -17.197109 0.66094005 3.5733111e-43
-4.2014928 -17.192194 1.0966456 3.5733111e-43
-4.1725512 -17.29373 0.21494532 3.5733111e-43
-4.1633725 -17.263927 0.65634251 3.5733111e-43
-4.1736488 -17.319454 1.0900176 3.5733111e-43
-4.1624956 -17.487778 0.19587266 3.5733111e-43
-4.1578498 -17.477797 0.64008009 3.5733111e-43
-4.1632061 -17.512232 1.0797532 3.5733111e-43
-4.1074328 -17.789185 0.61686707 3.5733111e-43
-4.1541638 -17.709837 0.17397821 3.5733111e-43
-4.1526523 -17.713907 0.62210381 3.5733111e-43
-4.1501813 -17.713619 1.0690374 3.5733111e-43
-4.0954037 -17.960989 0.14999497 3.5733111e-43
-4.1006956 -17.996725 0.60107005 3.5733111e-43
-4.1165795 -17.819975 0.16366148 3.5733111e-43
-4.1092496 -17.808498 1.0642086 3.5733111e-43
-4.0709877 -18.122906 0.1342895 3.5733111e-43
-4.1033545 -18.020256 1.0528752 3.5733111e-43
-4.0490141 -18.284138 0.11859846 3.5733111e-43
-4.0677285 -18.384939 0.57171643 3.5733111e-43
-4.0936608 -18.240891 0.58246386 3.5733111e-43
-4.086339 -18.217913 1.0423615 3.5733111e-43
-4.0253644 -18.441496 0.10330427 3.5733111e-43
-4.0329428 -18.489935 0.56404412 3.5733111e-43
-4.0270276 -18.473146 1.0289934 3.5733111e-43
-4.0793638 -18.452063 1.0298179 3.5733111e-43
