# .PCD v0.7 - Point Cloud Data file format
VERSION 0.7
FIELDS x y z rgb
SIZE 4 4 4 4
TYPE F F F F
COUNT 1 1 1 1
WIDTH 103
HEIGHT 1
VIEWPOINT 0 0 0 1 0 0 0
POINTS 103
DATA ascii
25.43121 53.316166 0.24159563 2.3477242e-38
25.42971 53.327747 0.59630632 2.3477242e-38
25.411854 53.230782 0.2511847 2.3477242e-38
25.402937 53.272007 0.95183873 2.3477242e-38
25.449175 53.573822 0.57287681 2.3477242e-38
25.447771 53.585312 0.92918837 2.3477242e-38
25.424128 53.486732 0.22095728 2.3477242e-38
25.423147 53.496841 0.57972515 2.3477242e-38
25.420547 53.512001 0.93420506 2.3477242e-38
25.442673 53.730156 0.55751336 2.3477242e-38
25.436508 53.757202 0.9161166 2.3477242e-38
25.505653 53.84008 0.18109679 2.3477242e-38
25.458166 53.843124 0.91004109 2.3477242e-38
25.547182 54.1796 0.14149189 2.3477242e-38
25.522434 54.097839 0.15060627 2.3477242e-38
25.517845 54.12085 0.52119303 2.3477242e-38
25.49608 54.013374 0.15998077 2.3477242e-38
25.48539 54.063854 0.893924 2.3477242e-38
25.562515 54.285355 0.12919676 2.3477242e-38
25.545187 54.352795 0.49915028 2.3477242e-38
25.519093 54.28302 0.5053829 2.3477242e-38
25.51474 54.30545 0.87623525 2.3477242e-38
25.587799 54.532097 0.10015893 2.3477242e-38
25.574572 54.404499 0.11517882 2.3477242e-38
25.537582 54.54113 0.48055887 2.3477242e-38
25.536533 54.552582 0.85797048 2.3477242e-38
25.56201 54.630859 0.47231257 2.3477242e-38
25.568571 54.61562 0.85371733 2.3477242e-38
25.544315 54.708996 1.2269658 2.3477242e-38
25.589348 54.882385 0.44825327 2.3477242e-38
25.592505 54.87912 0.83419621 2.3477242e-38
25.571903 54.961464 1.2138271 2.3477242e-38
25.561043 54.802193 0.4555074 2.3477242e-38
25.561554 54.808392 0.83906615 2.3477242e-38
25.594555 55.059273 0.43100917 2.3477242e-38
25.592876 55.07365 0.81950414 2.3477242e-38
25.586197 55.106262 1.206267 2.3477242e-38
25.621984 55.316158 0.40634871 2.3477242e-38
25.62182 55.325264 0.80089867 2.3477242e-38
25.617826 55.348625 1.1936617 2.3477242e-38
25.60121 55.217987 1.2004632 2.3477242e-38
25.785091 55.479233 -0.009278059 2.3477242e-38
25.729307 55.481304 -0.01095295 2.3477242e-38
25.675482 55.47551 -0.011642218 2.3477242e-38
25.650635 55.579002 0.38107824 2.3477242e-38
25.650406 55.588615 0.78136194 2.3477242e-38
25.653549 55.585335 1.1813669 2.3477242e-38
25.629604 55.486015 -0.014117718 2.3477242e-38
25.641197 55.451 0.39348245 2.3477242e-38
25.654274 55.41024 0.79493129 2.3477242e-38
25.641636 55.466557 1.1875895 2.3477242e-38
25.722698 55.741173 0.77079761 2.3477242e-38
25.700787 55.600273 0.37998259 2.3477242e-38
25.702074 55.604111 0.78091133 2.3477242e-38
25.671181 55.732307 1.173684 2.3477242e-38
25.708778 55.984318 0.34228539 2.3477242e-38
25.711882 55.981178 0.75242889 2.3477242e-38
25.710964 55.993919 1.1600549 2.3477242e-38
25.694351 55.843109 0.35592914 2.3477242e-38
25.687225 55.889008 1.1654623 2.3477242e-38
25.710947 56.177704 0.32324648 2.3477242e-38
25.716375 56.165268 0.73850417 2.3477242e-38
25.712059 56.191849 1.149503 2.3477242e-38
25.712257 56.378944 0.30340374 2.3477242e-38
25.740805 56.486305 0.29332757 2.3477242e-38
25.743677 56.484131 0.71461594 2.3477242e-38
25.746506 56.48209 1.1342635 2.3477242e-38
25.707542 56.407547 0.71997023 2.3477242e-38
25.710403 56.405411 1.1380889 2.3477242e-38
25.749943 56.686676 0.69927955 2.3477242e-38
25.749912 56.696579 1.1228237 2.3477242e-38
25.782444 56.997437 0.24351811 2.3477242e-38
25.785553 56.994297 0.67628992 2.3477242e-38
25.79141 56.97937 1.1079919 2.3477242e-38
25.759178 56.885666 0.25416839 2.3477242e-38
25.759985 56.902229 1.1118975 2.3477242e-38
25.795559 57.184349 0.22523558 2.3477242e-38
25.794994 57.197109 0.66094005 2.3477242e-38
25.798508 57.192192 1.0966456 2.3477242e-38
25.82745 57.293732 0.21494532 2.3477242e-38
25.836628 57.263927 0.65634251 2.3477242e-38
25.826351 57.319454 1.0900176 2.3477242e-38
25.837505 57.487778 0.19587266 2.3477242e-38
25.84215 57.477798 0.64008009 2.3477242e-38
25.836794 57.51223 1.0797532 2.3477242e-38
25.892567 57.789185 0.61686707 2.3477242e-38
25.845837 57.709839 0.17397821 2.3477242e-38
25.847347 57.713905 0.62210381 2.3477242e-38
25.849819 57.713619 1.0690374 2.3477242e-38
25.904596 57.960991 0.14999497 2.3477242e-38
25.899303 57.996727 0.60107005 2.3477242e-38
25.883421 57.819977 0.16366148 2.3477242e-38
25.890751 57.808498 1.0642086 2.3477242e-38
25.929012 58.122906 0.1342895 2.3477242e-38
25.896645 58.020256 1.0528752 2.3477242e-38
25.950985 58.284138 0.11859846 2.3477242e-38
25.932272 58.384941 0.57171643 2.3477242e-38
25.90634 58.240891 0.58246386 2.3477242e-38
25.913662 58.217911 1.0423615 2.3477242e-38
25.974636 58.441498 0.10330427 2.3477242e-38
25.967056 58.489937 0.56404412 2.3477242e-38
25.972973 58.473145 1.0289934 2.3477242e-38
25.920635 58.452065 1.0298179 2.3477242e-38
