# .PCD v0.7 - Point Cloud Data file format
VERSION 0.7
FIELDS x y z rgb
SIZE 4 4 4 4
TYPE F F F F
COUNT 1 1 1 1
WIDTH 44
HEIGHT 1
VIEWPOINT 0 0 0 1 0 0 0
POINTS 44
DATA ascii
8.3883896 37.734566 -0.34270334 2.3509528e-38
8.2197056 37.72876 0.15372312 2.3509528e-38
8.2434425 37.600605 0.1561625 2.3509528e-38
8.4437561 37.673653 -0.33636832 2.3509528e-38
8.483427 37.61203 -0.33183002 2.3509528e-38
8.7257271 36.565052 -0.30679464 2.3509528e-38
8.7187366 36.504059 -0.30790138 2.3509528e-38
8.6097183 36.499046 0.69152713 2.3509528e-38
8.717844 36.443718 -0.3083384 2.3509528e-38
8.6187344 36.439575 0.6921159 2.3509528e-38
8.7343311 36.761261 -0.30493021 2.3509528e-38
8.6332855 36.758423 0.69296849 2.3509528e-38
8.7335033 36.693638 -0.30530882 2.3509528e-38
8.6403961 36.69133 0.69348657 2.3509528e-38
8.7300968 36.633186 -0.30596828 2.3509528e-38
8.7065945 36.938457 -0.30742788 2.3509528e-38
8.6024666 36.932316 0.18871379 2.3509528e-38
8.6352158 36.939369 0.69289076 2.3509528e-38
8.7143574 36.879227 -0.30674338 2.3509528e-38
8.732172 36.821033 -0.30494189 2.3509528e-38
8.652174 37.188507 -0.31297517 2.3509528e-38
8.605423 37.188499 0.18904293 2.3509528e-38
8.6658268 37.122177 -0.31155801 2.3509528e-38
8.6770382 37.063175 -0.31042314 2.3509528e-38
8.6963272 37.004959 -0.30839443 2.3509528e-38
8.6238956 37.002117 0.1906724 2.3509528e-38
8.6467686 37.008148 0.69354773 2.3509528e-38
8.6234779 37.37373 -0.31599927 2.3509528e-38
8.6286316 37.306614 -0.31547403 2.3509528e-38
8.6413097 37.247616 -0.31411195 2.3509528e-38
8.6671429 37.257587 0.6943835 2.3509528e-38
8.69384 37.573765 0.69521391 2.3509528e-38
8.6864452 37.50602 0.69495225 2.3509528e-38
8.6497345 37.439617 0.19279456 2.3509528e-38
8.6902752 37.760162 0.69427478 2.3509528e-38
8.6345177 37.999668 0.18998384 2.3509528e-38
8.6885128 37.827206 0.69387746 2.3509528e-38
8.6378212 38.059578 0.19004393 2.3509528e-38
8.6968079 38.066132 0.69330704 2.3509528e-38
8.6855125 38.006012 0.6928581 2.3509528e-38
8.7354431 38.37991 0.69411409 2.3509528e-38
8.6900711 38.31506 0.19354606 2.3509528e-38
8.7013226 38.319397 0.69221556 2.3509528e-38
8.6663971 38.247227 0.19176543 2.3509528e-38
