# .PCD v0.7 - Point Cloud Data file format
VERSION 0.7
FIELDS x y z rgb
SIZE 4 4 4 4
TYPE F F F F
COUNT 1 1 1 1
WIDTH 43
HEIGHT 1
VIEWPOINT 0 0 0 1 0 0 0
POINTS 43
DATA ascii
49.696838 47.833241 0.44742024 3.5733111e-43
49.719826 47.918098 0.44274354 3.5733111e-43
49.746513 47.933441 0.94563055 3.5733111e-43
49.728043 47.928368 1.4539659 3.5733111e-43
49.762497 47.947224 1.956548 3.5733111e-43
49.797234 47.966217 2.460799 3.5733111e-43
49.717579 47.982628 0.94561553 3.5733111e-43
49.722778 47.988281 1.4530354 3.5733111e-43
49.691689 47.97736 1.956558 3.5733111e-43
49.719116 47.993118 2.4594688 3.5733111e-43
49.725296 48.056938 0.94321561 3.5733111e-43
49.725075 48.060116 1.4517024 3.5733111e-43
49.690407 48.047436 1.9559948 3.5733111e-43
49.725063 48.066612 2.4596877 3.5733111e-43
49.617386 48.074738 0.44379568 3.5733111e-43
49.739998 48.134724 0.94038951 3.5733111e-43
49.71442 48.126167 1.4507875 3.5733111e-43
49.648956 48.099098 1.9557252 3.5733111e-43
49.734375 48.141903 2.4599726 3.5733111e-43
49.72327 48.197239 1.449298 3.5733111e-43
49.743351 48.203323 0.93833113 3.5733111e-43
49.72871 48.206272 2.4599822 3.5733111e-43
49.724968 48.266121 0.93742239 3.5733111e-43
49.732063 48.272728 1.4477264 3.5733111e-43
49.728462 48.277527 2.4601021 3.5733111e-43
49.693504 48.329292 1.9537002 3.5733111e-43
49.746033 48.357426 2.4605522 3.5733111e-43
49.754086 48.422379 1.4444851 3.5733111e-43
49.755932 48.429749 2.4608593 3.5733111e-43
49.646881 48.439655 0.9361105 3.5733111e-43
49.756706 48.50219 2.4610124 3.5733111e-43
49.900238 47.927757 0.93869579 3.5733111e-43
49.912865 47.936737 1.4492421 3.5733111e-43
49.916401 47.941612 1.9560407 3.5733111e-43
49.921974 47.947407 2.4629638 3.5733111e-43
50.17453 47.915752 0.92634821 3.5733111e-43
50.163616 47.914291 1.4434171 3.5733111e-43
50.178207 47.92408 1.9552428 3.5733111e-43
50.185581 47.930679 2.4675844 3.5733111e-43
50.045265 47.921448 0.93217003 3.5733111e-43
50.043404 47.923958 1.4462309 3.5733111e-43
50.028709 47.920727 1.9558067 3.5733111e-43
50.056198 47.936283 2.4653111 3.5733111e-43
