# .PCD v0.7 - Point Cloud Data file format
VERSION 0.7
FIELDS x y z rgb
SIZE 4 4 4 4
TYPE F F F F
COUNT 1 1 1 1
WIDTH 63
HEIGHT 1
VIEWPOINT 0 0 0 1 0 0 0
POINTS 63
DATA ascii
44.950989 53.689247 1.4405549 3.5733111e-43
44.92231 53.738747 0.45941198 3.5733111e-43
44.951134 53.77169 1.43854 3.5733111e-43
44.917397 53.831276 1.4377606 3.5733111e-43
44.952972 53.945469 0.44590735 3.5733111e-43
44.895699 53.89267 1.4366912 3.5733111e-43
44.874191 53.964916 1.4353476 3.5733111e-43
44.962234 54.138672 0.43426359 3.5733111e-43
44.935085 54.115639 1.4304259 3.5733111e-43
44.922375 54.192692 1.4287796 3.5733111e-43
45.172852 53.733528 1.9261489 3.5733111e-43
45.054878 53.7089 1.4379799 3.5733111e-43
45.155098 53.809078 1.9256005 3.5733111e-43
45.189285 53.925632 1.9245334 3.5733111e-43
45.052231 53.87381 1.9254454 3.5733111e-43
45.087677 54.002811 1.924273 3.5733111e-43
45.009659 54.103428 1.923738 3.5733111e-43
45.071598 54.256023 1.9222792 3.5733111e-43
45.019257 54.293541 1.9221632 3.5733111e-43
45.00164 54.361176 1.9216785 3.5733111e-43
45.015896 54.467323 1.9207673 3.5733111e-43
45.012497 54.54385 0.40805888 3.5733111e-43
45.005692 54.541229 1.4185075 3.5733111e-43
45.022648 54.560993 1.9199842 3.5733111e-43
45.042519 54.66671 1.4146659 3.5733111e-43
45.076084 54.703873 1.9186348 3.5733111e-43
45.002872 54.724022 1.4140191 3.5733111e-43
45.036781 54.838005 0.38954401 3.5733111e-43
45.071735 54.879242 1.4088004 3.5733111e-43
45.175369 54.990639 1.9159549 3.5733111e-43
45.044376 54.946098 0.38278103 3.5733111e-43
45.065651 54.973053 1.4065766 3.5733111e-43
45.31855 53.459904 1.9278425 3.5733111e-43
45.359802 53.501152 2.4177308 3.5733111e-43
45.237114 53.458656 1.9281451 3.5733111e-43
45.237663 53.461464 2.4157982 3.5733111e-43
45.214756 53.528557 1.927659 3.5733111e-43
45.269333 53.662407 1.9263786 3.5733111e-43
45.204182 53.686806 1.9264148 3.5733111e-43
45.291779 53.846725 1.4298382 3.5733111e-43
45.594791 53.289162 1.9282339 3.5733111e-43
45.51012 53.301479 1.9284382 3.5733111e-43
45.446659 53.322979 1.9284918 3.5733111e-43
45.554398 53.597847 2.4210765 3.5733111e-43
45.563072 53.856468 0.91993237 3.5733111e-43
45.472542 53.855225 1.4259636 3.5733111e-43
45.533218 53.999977 0.91524327 3.5733111e-43
45.449951 53.921906 1.424808 3.5733111e-43
45.598793 54.07032 2.4253991 3.5733111e-43
45.49387 54.040604 0.91505539 3.5733111e-43
45.47937 54.121311 0.91231084 3.5733111e-43
45.659767 53.268456 1.9281683 3.5733111e-43
45.752438 53.431221 1.4303899 3.5733111e-43
45.671734 53.448128 1.4316568 3.5733111e-43
45.628246 53.412762 2.4206398 3.5733111e-43
45.662098 53.520378 1.4301312 3.5733111e-43
45.615807 53.482182 2.4210038 3.5733111e-43
45.783772 53.715374 1.4229615 3.5733111e-43
45.766895 53.704399 2.4247425 3.5733111e-43
45.718498 53.747112 1.4235423 3.5733111e-43
45.957584 53.033096 0.93757832 3.5733111e-43
45.904846 53.065704 0.93834209 3.5733111e-43
45.983078 53.142239 2.4234607 3.5733111e-43
