# .PCD v0.7 - Point Cloud Data file format
VERSION 0.7
FIELDS x y z rgb
SIZE 4 4 4 4
TYPE F F F F
COUNT 1 1 1 1
WIDTH 107
HEIGHT 1
VIEWPOINT 0 0 0 1 0 0 0
POINTS 107
DATA ascii
7.6773968 28.353199 -0.039625645 2.3418409e-38
7.6731815 28.354881 0.5375036 2.3418409e-38
7.687336 28.286194 -0.040976286 2.3418409e-38
7.7120857 28.536282 -0.031014919 2.3418409e-38
7.7017879 28.445881 -0.034704208 2.3418409e-38
7.717514 28.457008 0.54237676 2.3418409e-38
7.7557888 28.792595 -0.019499779 2.3418409e-38
7.6594257 28.752081 0.54521739 2.3418409e-38
7.7318497 28.696852 -0.024397612 2.3418409e-38
7.7335758 28.612652 -0.026880264 2.3418409e-38
7.7755451 28.956116 -0.012906551 2.3418409e-38
7.748188 28.947449 0.55461669 2.3418409e-38
7.7708893 28.869846 -0.015906811 2.3418409e-38
7.7800026 29.189653 0.56146944 2.3418409e-38
7.7690525 29.105932 0.55911756 2.3418409e-38
7.7768021 29.035934 -0.010399103 2.3418409e-38
7.7640343 29.033905 0.5573473 2.3418409e-38
7.7677212 29.33308 -0.0023698807 2.3418409e-38
7.7916737 29.347195 0.56531346 2.3418409e-38
7.7840748 29.274694 0.56341684 2.3418409e-38
7.8054123 29.57877 0.0077664852 2.3418409e-38
7.8370152 29.595882 0.57290184 2.3418409e-38
7.8157921 29.518299 0.57011878 2.3418409e-38
7.8018246 29.43437 0.56764007 2.3418409e-38
7.8611145 29.765217 0.57758224 2.3418409e-38
7.8478832 29.677923 0.5751282 2.3418409e-38
7.863966 29.988565 0.023929834 2.3418409e-38
7.8757668 29.997074 0.58276665 2.3418409e-38
7.8243923 29.895708 0.018136024 2.3418409e-38
7.8729954 29.919365 0.58117402 2.3418409e-38
7.8254375 29.814674 0.01600194 2.3418409e-38
7.8647099 29.834642 0.57909977 2.3418409e-38
7.904707 30.148596 0.031590939 2.3418409e-38
7.8907547 30.146713 0.58638382 2.3418409e-38
7.8832741 30.068298 0.027673721 2.3418409e-38
7.8766613 30.069336 0.58413124 2.3418409e-38
7.9197502 30.381767 0.03893733 2.3418409e-38
7.9189281 30.385155 0.59230328 2.3418409e-38
7.9227829 30.302975 0.037149668 2.3418409e-38
7.9107742 30.301952 0.59035587 2.3418409e-38
7.8915539 30.219316 0.032365561 2.3418409e-38
7.8943024 30.224117 0.58797622 2.3418409e-38
7.9111214 30.520168 0.041748524 2.3418409e-38
7.9364471 30.533604 0.5959208 2.3418409e-38
7.9259167 30.459517 0.041443825 2.3418409e-38
7.9344559 30.466528 0.59465766 2.3418409e-38
7.9533882 30.7519 0.05105257 2.3418409e-38
7.9659119 30.7603 0.60151231 2.3418409e-38
7.9400063 30.685427 0.048295021 2.3418409e-38
7.950592 30.69313 0.59946072 2.3418409e-38
7.9326649 30.603436 0.045641661 2.3418409e-38
7.9487743 30.613277 0.59802139 2.3418409e-38
7.9764805 30.98315 0.058571577 2.3418409e-38
7.9873352 30.990818 0.60654366 2.3418409e-38
7.9657021 30.913872 0.056013107 2.3418409e-38
7.978363 30.922237 0.60489929 2.3418409e-38
7.9463215 30.828098 0.052318573 2.3418409e-38
7.9682484 30.839941 0.60295141 2.3418409e-38
7.9880676 31.139225 0.063210964 2.3418409e-38
7.9814491 31.063164 0.060878277 2.3418409e-38
7.9867325 31.068789 0.60772789 2.3418409e-38
8.0126801 31.363571 0.070408821 2.3418409e-38
8.0276279 31.372486 0.61488688 2.3418409e-38
8.0010052 31.282026 0.067581177 2.3418409e-38
8.01964 31.292288 0.61319339 2.3418409e-38
8.0027695 31.204992 0.065969706 2.3418409e-38
8.0138226 31.212629 0.61162746 2.3418409e-38
8.0345573 31.576675 0.07696414 2.3418409e-38
8.0534782 31.586796 0.61961508 2.3418409e-38
8.0251541 31.505096 0.074605227 2.3418409e-38
8.0458927 31.515896 0.61812401 2.3418409e-38
8.0140953 31.432758 0.072072506 2.3418409e-38
8.0215473 31.439051 0.61548555 2.3418409e-38
8.0629978 31.734692 0.62228918 2.3418409e-38
8.0410194 31.65134 0.07912302 2.3418409e-38
8.0562229 31.660156 0.62082469 2.3418409e-38
8.0974464 31.957508 0.62747574 2.3418409e-38
8.0626945 31.870245 0.6241219 2.3418409e-38
8.0515442 31.803568 0.083239555 2.3418409e-38
8.0422173 31.804247 0.62193978 2.3418409e-38
8.0607815 32.013229 0.62590015 2.3418409e-38
8.118906 32.379562 0.10044026 2.3418409e-38
8.1309242 32.38694 0.63503778 2.3418409e-38
8.0811481 32.296692 0.63078558 2.3418409e-38
8.0632629 32.496162 0.097837925 2.3418409e-38
8.0848274 32.506313 0.63353848 2.3418409e-38
8.1332417 32.462517 0.63609147 2.3418409e-38
8.1143227 32.792747 0.10751331 2.3418409e-38
8.1010513 32.722893 0.1051544 2.3418409e-38
8.1477871 32.740044 0.6402086 2.3418409e-38
8.1457863 32.805428 0.64080215 2.3418409e-38
8.1706524 33.013931 0.11610937 2.3418409e-38
8.1283245 33.280384 0.11670363 2.3418409e-38
8.1756516 33.296535 0.6477381 2.3418409e-38
8.1626797 33.220127 0.11874068 2.3418409e-38
8.3606167 33.393768 -0.38944101 2.3418409e-38
8.3454838 33.333385 -0.39238191 2.3418409e-38
8.3392754 33.263081 -0.39457774 2.3418409e-38
8.2061405 33.235397 0.64910042 2.3418409e-38
8.2354851 33.579105 0.654163 2.3418409e-38
8.3741283 33.541939 -0.38488197 2.3418409e-38
8.2390633 33.515442 0.65382874 2.3418409e-38
8.3701344 33.468639 -0.38682914 2.3418409e-38
8.2870617 33.788673 0.65925574 2.3418409e-38
8.398859 33.74015 -0.37821341 2.3418409e-38
8.3904133 33.674168 -0.38043618 2.3418409e-38
8.3725281 33.60569 -0.38376665 2.3418409e-38
