# .PCD v0.7 - Point Cloud Data file format
VERSION 0.7
FIELDS x y z rgb
SIZE 4 4 4 4
TYPE F F F F
COUNT 1 1 1 1
WIDTH 1071
HEIGHT 1
VIEWPOINT 0 0 0 1 0 0 0
POINTS 1071
DATA ascii
37.075191 36.43692 0.12498629 2.3509886e-38
37.027596 36.455906 0.3241514 2.3509886e-38
37.015347 36.462051 0.50935853 2.3509886e-38
37.057278 36.471157 0.863307 2.3509886e-38
37.136997 36.444283 1.0295273 2.3509886e-38
37.036224 36.4701 -0.049311876 2.3509886e-38
37.12735 36.439114 0.11211824 2.3509886e-38
37.052505 36.467754 0.31935441 2.3509886e-38
37.001678 36.487709 0.51377404 2.3509886e-38
37.052135 36.497971 0.86537778 2.3509886e-38
37.137497 36.469372 1.0304357 2.3509886e-38
37.027786 36.498047 -0.044546366 2.3509886e-38
37.054882 36.491898 0.32053375 2.3509886e-38
37.016869 36.507114 0.51189888 2.3509886e-38
37.05162 36.520306 0.86649585 2.3509886e-38
37.13517 36.492607 1.0316476 2.3509886e-38
37.022011 36.522179 -0.040861845 2.3509886e-38
37.025566 36.522667 0.14422417 2.3509886e-38
37.036125 36.520679 0.32682395 2.3509886e-38
37.064507 36.539303 0.86532283 2.3509886e-38
37.135071 36.516403 1.0325686 2.3509886e-38
37.014763 36.548119 -0.036635637 2.3509886e-38
37.051098 36.537163 0.13894987 2.3509886e-38
37.032383 36.545433 0.32940352 2.3509886e-38
37.021801 36.550823 0.51360631 2.3509886e-38
37.051228 36.567368 0.86870992 2.3509886e-38
37.134895 36.540176 1.0334899 2.3509886e-38
37.011055 36.572739 -0.033514023 2.3509886e-38
37.045532 36.562542 0.1423099 2.3509886e-38
37.024879 36.571411 0.33290899 2.3509886e-38
37.017906 36.575516 0.51591516 2.3509886e-38
37.05423 36.588356 0.86917758 2.3509886e-38
37.132339 36.56332 1.0347035 2.3509886e-38
37.012306 36.594219 -0.032038689 2.3509886e-38
37.107162 36.563423 0.12688577 2.3509886e-38
37.046322 36.58601 0.32902467 2.3509886e-38
37.011658 36.599571 0.51865363 2.3509886e-38
37.130135 36.587677 1.0359058 2.3509886e-38
37.063194 36.608677 0.86865652 2.3509886e-38
37.026642 36.612583 -0.034444094 2.3509886e-38
37.050201 36.606308 0.14447105 2.3509886e-38
37.034985 36.613197 0.33345652 2.3509886e-38
37.011303 36.622913 0.5201292 2.3509886e-38
37.060463 36.631557 0.87010229 2.3509886e-38
37.131187 36.609497 1.0365604 2.3509886e-38
37.024124 36.6353 -0.031862736 2.3509886e-38
37.062317 36.624176 0.14276326 2.3509886e-38
37.054489 36.628529 0.33003426 2.3509886e-38
37.016022 36.643139 0.52036405 2.3509886e-38
37.059532 36.653786 0.87122262 2.3509886e-38
37.130291 36.631927 1.0374953 2.3509886e-38
37.028828 36.655556 -0.031492233 2.3509886e-38
37.050526 36.65004 0.14766133 2.3509886e-38
37.035202 36.656864 0.33632994 2.3509886e-38
37.009552 36.66708 0.52310455 2.3509886e-38
37.06496 36.676605 0.87134242 2.3509886e-38
37.126381 36.658058 1.0389677 2.3509886e-38
37.032452 36.678875 -0.030591488 2.3509886e-38
37.026596 36.682526 0.15609491 2.3509886e-38
37.077595 36.667423 0.32733059 2.3509886e-38
37.013088 36.690353 0.52373469 2.3509886e-38
37.066166 36.699421 0.87212586 2.3509886e-38
37.129505 36.68045 1.0393318 2.3509886e-38
37.048393 36.696789 -0.033550739 2.3509886e-38
37.049942 36.697998 0.15132713 2.3509886e-38
37.0271 36.707161 0.34148526 2.3509886e-38
37.021732 36.710583 0.52312398 2.3509886e-38
37.066898 36.720989 0.87292135 2.3509886e-38
37.126507 36.703415 1.0405483 2.3509886e-38
37.063892 36.713539 -0.036498547 2.3509886e-38
37.022327 36.7304 0.34408081 2.3509886e-38
37.024342 36.731415 0.52377748 2.3509886e-38
37.066082 36.744381 0.8740319 2.3509886e-38
37.135151 36.72398 1.0400724 2.3509886e-38
37.123787 36.719215 0.1341747 2.3509886e-38
37.0364 36.748894 0.34203601 2.3509886e-38
37.027275 36.753475 0.52442002 2.3509886e-38
37.068562 36.765324 0.87450171 2.3509886e-38
37.130127 36.747501 1.0415698 2.3509886e-38
37.144623 36.732796 -0.057342529 2.3509886e-38
37.036045 36.768955 0.15991938 2.3509886e-38
37.037052 36.770329 0.34324324 2.3509886e-38
37.040947 36.77076 0.52256739 2.3509886e-38
37.003235 36.78434 0.70855212 2.3509886e-38
37.069099 36.78685 0.87529802 2.3509886e-38
37.126915 36.770386 1.0427878 2.3509886e-38
37.141712 36.755657 -0.054760456 2.3509886e-38
37.044052 36.788052 0.1592294 2.3509886e-38
37.054352 36.78651 0.34028327 2.3509886e-38
37.067635 36.784012 0.51779008 2.3509886e-38
37.128181 36.794556 1.0434226 2.3509886e-38
37.150505 36.777557 -0.055520773 2.3509886e-38
37.098808 36.79871 0.51215303 2.3509886e-38
37.156635 36.797558 -0.055704832 2.3509886e-38
37.007488 36.804504 0.70874393 2.3509886e-38
37.068443 36.811417 0.87639844 2.3509886e-38
37.050915 36.810211 0.15902531 2.3509886e-38
37.040783 36.815048 0.34517336 2.3509886e-38
37.012436 36.827126 0.70891309 2.3509886e-38
37.074501 36.831177 0.87621665 2.3509886e-38
37.128609 36.816219 1.0440805 2.3509886e-38
37.038471 36.835613 0.16392946 2.3509886e-38
37.043098 36.835876 0.34591842 2.3509886e-38
37.16098 36.801338 0.4994334 2.3509886e-38
37.01281 36.848461 0.70984983 2.3509886e-38
37.072948 36.853245 0.87734044 2.3509886e-38
37.127075 36.838444 1.0450194 2.3509886e-38
37.16087 36.81813 -0.055335283 2.3509886e-38
37.049995 36.853607 0.16222274 2.3509886e-38
37.043491 36.857269 0.34712732 2.3509886e-38
37.022522 36.866924 0.70892477 2.3509886e-38
37.077736 36.876057 0.87746263 2.3509886e-38
37.130009 36.861992 1.0453748 2.3509886e-38
37.154755 36.844543 -0.051668406 2.3509886e-38
37.060356 36.874672 0.1610018 2.3509886e-38
37.044552 36.881107 0.34831357 2.3509886e-38
37.038963 36.884434 0.5291388 2.3509886e-38
37.027267 36.889576 0.70909464 2.3509886e-38
37.077938 36.897526 0.87826085 2.3509886e-38
37.13213 36.883049 1.0457532 2.3509886e-38
37.173588 36.860706 -0.055726051 2.3509886e-38
37.086609 36.888336 0.15522504 2.3509886e-38
37.065319 36.896362 0.34442651 2.3509886e-38
37.020439 36.911362 0.53439295 2.3509886e-38
37.02557 36.911461 0.71040463 2.3509886e-38
37.078075 36.91898 0.87905908 2.3509886e-38
37.13229 36.904655 1.0464127 2.3509886e-38
37.172112 36.882942 -0.053695917 2.3509886e-38
37.128983 36.899067 0.32988071 2.3509886e-38
37.005569 36.937069 0.53881228 2.3509886e-38
37.033226 36.930546 0.70985222 2.3509886e-38
37.078861 36.94289 0.87983537 2.3509886e-38
37.142612 36.92598 1.0456462 2.3509886e-38
37.18605 36.903355 -0.056116104 2.3509886e-38
37.035885 36.953766 0.7103951 2.3509886e-38
37.082657 36.963223 0.8799814 2.3509886e-38
37.135033 36.949772 1.0474292 2.3509886e-38
37.189983 36.923985 -0.055746317 2.3509886e-38
37.171146 36.932823 0.32207751 2.3509886e-38
37.039654 36.973976 0.71058834 2.3509886e-38
37.082592 36.984642 0.88078094 2.3509886e-38
37.163559 36.963219 1.0438775 2.3509886e-38
37.09079 36.977421 0.34321713 2.3509886e-38
37.047646 36.99136 0.53281546 2.3509886e-38
37.047142 36.993118 0.7100358 2.3509886e-38
37.158459 36.988956 1.0453573 2.3509886e-38
37.196526 36.9683 -0.054475069 2.3509886e-38
37.08316 37.008518 0.88155806 2.3509886e-38
37.076466 37.005531 0.3481133 2.3509886e-38
37.059532 37.011936 0.5313586 2.3509886e-38
37.059052 37.013683 0.70871544 2.3509886e-38
37.089008 37.029556 0.88136673 2.3509886e-38
37.179634 37.005974 1.0429165 2.3509886e-38
37.057823 37.035004 0.53284109 2.3509886e-38
37.04784 37.039391 0.71188033 2.3509886e-38
37.088409 37.049702 0.88217843 2.3509886e-38
37.154255 37.033188 1.047241 2.3509886e-38
37.059139 37.054543 0.53350997 2.3509886e-38
37.051025 37.058384 0.71208537 2.3509886e-38
37.092567 37.07251 0.88230276 2.3509886e-38
37.158463 37.056202 1.0473179 2.3509886e-38
37.104736 37.064346 0.34476852 2.3509886e-38
37.065178 37.076744 0.53330839 2.3509886e-38
37.053261 37.081589 0.71263003 2.3509886e-38
37.094082 37.093361 0.88277698 2.3509886e-38
37.184875 37.07056 1.0440449 2.3509886e-38
37.098804 37.087246 0.34737098 2.3509886e-38
37.070484 37.096497 0.53312933 2.3509886e-38
37.056664 37.101818 0.71282434 2.3509886e-38
37.095539 37.114201 0.88325143 2.3509886e-38
37.195084 37.090939 1.2189308 2.3509886e-38
37.100319 37.108097 0.34811902 2.3509886e-38
37.066288 37.118778 0.53504288 2.3509886e-38
37.05431 37.123566 0.71413779 2.3509886e-38
37.09758 37.137516 0.88370371 2.3509886e-38
37.197178 37.114567 1.2191966 2.3509886e-38
37.104301 37.130924 0.3483808 2.3509886e-38
37.077797 37.139511 0.53358626 2.3509886e-38
37.062035 37.145252 0.71356404 2.3509886e-38
37.095085 37.159336 0.88483298 2.3509886e-38
37.194706 37.136673 1.2199556 2.3509886e-38
37.101921 37.152748 0.35005701 2.3509886e-38
37.077248 37.160774 0.5346632 2.3509886e-38
37.063351 37.165981 0.71413195 2.3509886e-38
37.096348 37.180149 0.88530838 2.3509886e-38
37.091434 37.18298 1.0601709 2.3509886e-38
37.19986 37.15678 1.2197742 2.3509886e-38
37.108898 37.172119 0.34941387 2.3509886e-38
37.080429 37.181049 0.53490365 2.3509886e-38
37.064606 37.186703 0.71470022 2.3509886e-38
37.199818 37.180878 1.220276 2.3509886e-38
37.110786 37.195435 0.35014057 2.3509886e-38
37.098171 37.203434 0.88576162 2.3509886e-38
37.064445 37.213531 1.0647523 2.3509886e-38
37.082275 37.204277 0.53554034 2.3509886e-38
37.068329 37.209404 0.71487343 2.3509886e-38
37.099304 37.224232 0.88623738 2.3509886e-38
37.019436 37.245758 1.0718902 2.3509886e-38
37.189434 37.204845 1.2219776 2.3509886e-38
37.111984 37.216263 0.3508898 2.3509886e-38
37.081535 37.225502 0.53661847 2.3509886e-38
37.071365 37.229637 0.71506882 2.3509886e-38
37.098465 37.245495 0.88704109 2.3509886e-38
37.116898 37.236149 0.35071111 2.3509886e-38
37.092125 37.243893 0.53518403 2.3509886e-38
37.070526 37.25082 0.71601105 2.3509886e-38
37.100075 37.268753 0.8874954 2.3509886e-38
37.120472 37.258995 0.35097432 2.3509886e-38
37.093765 37.267124 0.53582156 2.3509886e-38
37.070225 37.274452 0.7169317 2.3509886e-38
37.101017 37.28952 0.88797224 2.3509886e-38
37.013229 37.312202 1.0744359 2.3509886e-38
37.127155 37.278446 0.35033154 2.3509886e-38
37.096642 37.287415 0.53606284 2.3509886e-38
37.073074 37.294678 0.71712792 2.3509886e-38
37.103821 37.309826 0.88812184 2.3509886e-38
37.014038 37.332722 1.0748236 2.3509886e-38
37.122437 37.300629 0.35247457 2.3509886e-38
37.09375 37.309067 0.53756106 2.3509886e-38
37.072044 37.315815 0.71807122 2.3509886e-38
37.105225 37.333065 0.88857698 2.3509886e-38
37.023071 37.35387 1.0740632 2.3509886e-38
37.125801 37.323479 0.35273838 2.3509886e-38
37.100891 37.330933 0.53694248 2.3509886e-38
37.079178 37.337608 0.7174989 2.3509886e-38
37.105976 37.353813 0.88905489 2.3509886e-38
37.029545 37.373055 1.0736061 2.3509886e-38
37.134205 37.342522 0.35163152 2.3509886e-38
37.105488 37.35078 0.5367651 2.3509886e-38
37.078018 37.358727 0.7184428 2.3509886e-38
37.106956 37.375797 0.8895216 2.3509886e-38
37.042038 37.392166 1.0722929 2.3509886e-38
37.12767 37.366322 0.35422897 2.3509886e-38
37.098877 37.374504 0.53909171 2.3509886e-38
37.080906 37.380188 0.71862888 2.3509886e-38
37.109512 37.396095 0.88967228 2.3509886e-38
37.128372 37.387108 0.35498047 2.3509886e-38
37.09763 37.395645 0.54017246 2.3509886e-38
37.058067 37.409233 1.0704269 2.3509886e-38
37.081539 37.400845 0.7191999 2.3509886e-38
37.112282 37.417637 0.88981211 2.3509886e-38
37.134983 37.40786 0.35432744 2.3509886e-38
37.10614 37.415874 0.53914618 2.3509886e-38
37.084301 37.422302 0.71938646 2.3509886e-38
37.110867 37.438786 0.89061856 2.3509886e-38
37.190842 37.422779 1.0520257 2.3509886e-38
37.13176 37.429478 0.35600829 2.3509886e-38
37.108589 37.436161 0.5393889 2.3509886e-38
37.08289 37.443371 0.72033179 2.3509886e-38
37.111847 37.461979 0.89107561 2.3509886e-38
37.178318 37.449154 1.0543622 2.3509886e-38
37.149921 37.449024 0.35255682 2.3509886e-38
37.100048 37.461418 0.54212594 2.3509886e-38
37.085793 37.466061 0.72050786 2.3509886e-38
37.114159 37.482269 0.89122725 2.3509886e-38
37.140873 37.471863 0.35563231 2.3509886e-38
37.113846 37.479221 0.53985298 2.3509886e-38
37.086174 37.486687 0.72107995 2.3509886e-38
37.114479 37.502964 0.89170694 2.3509886e-38
37.196507 37.487251 1.0525964 2.3509886e-38
37.139362 37.493031 0.35684967 2.3509886e-38
37.102718 37.502335 0.54303229 2.3509886e-38
37.088417 37.506901 0.72127855 2.3509886e-38
37.120537 37.522446 0.89120305 2.3509886e-38
37.192924 37.508972 1.0535467 2.3509886e-38
37.141598 37.513386 0.3571378 2.3509886e-38
37.106838 37.52219 0.54285669 2.3509886e-38
37.092529 37.526714 0.72110331 2.3509886e-38
37.119061 37.544777 0.8920002 2.3509886e-38
37.164989 37.530693 0.35230219 2.3509886e-38
37.114986 37.542511 0.54183114 2.3509886e-38
37.092983 37.548565 0.72166514 2.3509886e-38
37.121384 37.566307 0.8921417 2.3509886e-38
37.186066 37.554825 1.0554267 2.3509886e-38
37.152115 37.555443 0.35629809 2.3509886e-38
37.111572 37.565193 0.54332292 2.3509886e-38
37.093376 37.570408 0.72222733 2.3509886e-38
37.123886 37.589085 0.89227235 2.3509886e-38
37.188602 37.577801 1.0555097 2.3509886e-38
37.13559 37.582108 0.36121404 2.3509886e-38
37.112171 37.588318 0.5439651 2.3509886e-38
37.097794 37.592712 0.72203076 2.3509886e-38
37.193977 37.595001 1.0550728 2.3509886e-38
37.18689 37.597904 1.2290239 2.3509886e-38
37.121479 37.607639 0.89310336 2.3509886e-38
37.125633 37.60218 0.36431503 2.3509886e-38
37.121326 37.604588 0.54255283 2.3509886e-38
37.097328 37.610828 0.72262645 2.3509886e-38
37.119976 37.631149 0.89389122 2.3509886e-38
37.19833 37.617619 1.0548739 2.3509886e-38
37.162415 37.618332 0.35621285 2.3509886e-38
37.123714 37.627354 0.54277575 2.3509886e-38
37.097763 37.633888 0.72317863 2.3509886e-38
37.128086 37.652805 0.89303803 2.3509886e-38
37.188992 37.642822 1.0566517 2.3509886e-38
37.155209 37.643032 0.35880542 2.3509886e-38
37.124107 37.650482 0.54341853 2.3509886e-38
37.103916 37.655842 0.72260845 2.3509886e-38
37.125977 37.673809 0.8938483 2.3509886e-38
37.188835 37.663635 1.0570403 2.3509886e-38
37.132164 37.668034 0.36514139 2.3509886e-38
37.122047 37.671474 0.54450357 2.3509886e-38
37.103748 37.676418 0.72318304 2.3509886e-38
37.129623 37.693726 0.89367378 2.3509886e-38
37.184727 37.68515 1.0579942 2.3509886e-38
37.143467 37.686565 0.36310625 2.3509886e-38
37.129539 37.690674 0.54348934 2.3509886e-38
37.101589 37.697338 0.72413218 2.3509886e-38
37.133438 37.714897 0.89348853 2.3509886e-38
37.184673 37.707184 1.0583726 2.3509886e-38
37.145378 37.70813 0.36338568 2.3509886e-38
37.129509 37.712547 0.54414403 2.3509886e-38
37.109257 37.717731 0.72319877 2.3509886e-38
37.129421 37.737457 0.8946172 2.3509886e-38
37.188454 37.728519 1.0581862 2.3509886e-38
37.147221 37.729694 0.36366558 2.3509886e-38
37.12941 37.734406 0.54479885 2.3509886e-38
37.109127 37.739529 0.72376323 2.3509886e-38
37.135048 37.758289 0.894104 2.3509886e-38
37.180462 37.751896 1.0596956 2.3509886e-38
37.179657 37.745903 0.35650074 2.3509886e-38
37.138874 37.75457 0.54335392 2.3509886e-38
37.112801 37.760643 0.72357893 2.3509886e-38
37.136517 37.778564 0.89425874 2.3509886e-38
37.179993 37.772629 1.060086 2.3509886e-38
37.142834 37.772892 0.36609817 2.3509886e-38
37.140362 37.774857 0.5436002 2.3509886e-38
37.116203 37.780521 0.72340572 2.3509886e-38
37.135773 37.797916 0.8947531 2.3509886e-38
37.177303 37.792427 1.0607704 2.3509886e-38
37.178589 37.786098 0.35802352 2.3509886e-38
37.128086 37.796173 0.54679823 2.3509886e-38
37.115467 37.79982 0.72399259 2.3509886e-38
37.139484 37.820354 0.89455795 2.3509886e-38
37.181034 37.814991 1.0605742 2.3509886e-38
37.165054 37.811539 0.3620162 2.3509886e-38
37.137581 37.817631 0.54534268 2.3509886e-38
37.117229 37.822517 0.72417283 2.3509886e-38
37.143124 37.8428 0.89436316 2.3509886e-38
37.182739 37.837883 1.0606608 2.3509886e-38
37.172546 37.833447 0.36088967 2.3509886e-38
37.145081 37.839447 0.54430735 2.3509886e-38
37.124737 37.844269 0.72322893 2.3509886e-38
37.128372 37.863064 0.89717007 2.3509886e-38
37.183582 37.855759 1.0607915 2.3509886e-38
37.161896 37.853146 0.36399627 2.3509886e-38
37.145931 37.857231 0.54457593 2.3509886e-38
37.119751 37.86293 0.72457683 2.3509886e-38
37.112389 37.888523 0.90026379 2.3509886e-38
37.183205 37.878952 1.0611618 2.3509886e-38
37.194244 37.871147 0.35681713 2.3509886e-38
37.147514 37.880009 0.54480171 2.3509886e-38
37.121315 37.88562 0.72475779 2.3509886e-38
37.121284 37.907501 0.89910519 2.3509886e-38
37.196068 37.897526 1.0595732 2.3509886e-38
37.174259 37.89481 0.36223066 2.3509886e-38
37.150581 37.899986 0.54462874 2.3509886e-38
37.126308 37.905228 0.72421074 2.3509886e-38
37.118431 37.928288 0.89991987 2.3509886e-38
37.191261 37.918816 1.0605315 2.3509886e-38
37.17728 37.914867 0.36205733 2.3509886e-38
37.145855 37.921143 0.54613769 2.3509886e-38
37.125423 37.925732 0.72478855 2.3509886e-38
37.190681 37.941998 1.0609024 2.3509886e-38
37.17099 37.938862 0.36419129 2.3509886e-38
37.151104 37.943325 0.54552341 2.3509886e-38
37.128727 37.948135 0.72459507 2.3509886e-38
37.117149 37.974182 0.9008497 2.3509886e-38
37.190022 37.965168 1.0612738 2.3509886e-38
37.164616 37.962807 0.36632597 2.3509886e-38
37.158218 37.965256 0.54448843 2.3509886e-38
37.128071 37.971111 0.7251519 2.3509886e-38
37.116055 37.994625 0.90133655 2.3509886e-38
37.19482 37.984985 1.0608177 2.3509886e-38
37.180927 37.980923 0.36289275 2.3509886e-38
37.157173 37.985813 0.54515743 2.3509886e-38
37.128941 37.99131 0.72535539 2.3509886e-38
37.130531 38.01289 0.89919102 2.3509886e-38
37.185837 38.006714 1.062344 2.3509886e-38
37.181778 38.001263 0.36318576 2.3509886e-38
37.158005 38.006084 0.54540586 2.3509886e-38
37.131699 38.011234 0.72518408 2.3509886e-38
37.139099 38.032021 0.89803255 2.3509886e-38
37.194443 38.025997 1.0613216 2.3509886e-38
37.195724 38.018257 0.17961574 2.3509886e-38
37.167156 38.023701 0.36720681 2.3509886e-38
37.156841 38.026619 0.54607534 2.3509886e-38
37.136349 38.030903 0.72463775 2.3509886e-38
37.153641 38.051666 0.89587569 2.3509886e-38
37.195312 38.047619 1.0614218 2.3509886e-38
37.191185 38.042164 0.36189842 2.3509886e-38
37.15966 38.047874 0.54589295 2.3509886e-38
37.141106 38.051834 0.72408056 2.3509886e-38
37.158352 38.072651 0.8953644 2.3509886e-38
37.194157 38.069492 1.0618054 2.3509886e-38
37.162418 38.069138 0.5457108 2.3509886e-38
37.138008 38.073799 0.72502482 2.3509886e-38
37.157284 38.095654 0.89583051 2.3509886e-38
37.181381 38.088108 0.36525059 2.3509886e-38
37.167206 38.091415 0.54509735 2.3509886e-38
37.146694 38.095505 0.72370672 2.3509886e-38
37.161713 38.115414 0.89533019 2.3509886e-38
37.17614 38.109138 0.36694336 2.3509886e-38
37.16774 38.111687 0.54534698 2.3509886e-38
37.139416 38.116684 0.72541296 2.3509886e-38
37.16217 38.135662 0.89548874 2.3509886e-38
37.195938 38.12709 0.36257672 2.3509886e-38
37.162392 38.132664 0.54685974 2.3509886e-38
37.145721 38.136166 0.72449183 2.3509886e-38
37.162861 38.158409 0.89562631 2.3509886e-38
37.198692 38.15567 1.061926 2.3509886e-38
37.165043 38.155186 0.5466677 2.3509886e-38
37.146416 38.158863 0.72467589 2.3509886e-38
37.16095 38.176376 0.89613593 2.3509886e-38
37.17094 38.17226 0.54567647 2.3509886e-38
37.148422 38.176338 0.724527 2.3509886e-38
37.165432 38.198669 0.89561498 2.3509886e-38
37.199314 38.196346 1.0621511 2.3509886e-38
37.191563 38.191277 0.3648392 2.3509886e-38
37.171524 38.195026 0.54590583 2.3509886e-38
37.147034 38.199253 0.72508705 2.3509886e-38
37.165787 38.220158 0.89576399 2.3509886e-38
37.169952 38.216747 0.54656696 2.3509886e-38
37.149345 38.220474 0.72490668 2.3509886e-38
37.165817 38.23914 0.89593434 2.3509886e-38
37.199753 38.231071 0.36356509 2.3509886e-38
37.171947 38.235535 0.5464077 2.3509886e-38
37.151333 38.239208 0.72474778 2.3509886e-38
37.172066 38.261265 0.89508402 2.3509886e-38
37.172329 38.258289 0.54663789 2.3509886e-38
37.153652 38.261692 0.7245574 2.3509886e-38
37.172112 38.281506 0.89524424 2.3509886e-38
37.192497 38.275017 0.36600196 2.3509886e-38
37.176281 38.278141 0.54604697 2.3509886e-38
37.157608 38.281487 0.72401237 2.3509886e-38
37.174065 38.301548 0.89507473 2.3509886e-38
37.176289 38.298386 0.54629886 2.3509886e-38
37.16151 38.3013 0.72346771 2.3509886e-38
37.176189 38.3241 0.89488447 2.3509886e-38
37.174526 38.32132 0.54695106 2.3509886e-38
37.159725 38.324188 0.7240293 2.3509886e-38
37.180099 38.34523 0.89437497 2.3509886e-38
37.18111 38.340717 0.36966074 2.3509886e-38
37.178417 38.342449 0.54635 2.3509886e-38
37.16362 38.345268 0.72347414 2.3509886e-38
37.179798 38.364212 0.89454651 2.3509886e-38
37.18203 38.361084 0.54577029 2.3509886e-38
37.161369 38.364384 0.72406805 2.3509886e-38
37.181625 38.385529 0.89436734 2.3509886e-38
37.179958 38.382748 0.54643381 2.3509886e-38
37.165146 38.385483 0.72351313 2.3509886e-38
37.185455 38.407944 0.89384758 2.3509886e-38
37.183773 38.405163 0.54582274 2.3509886e-38
37.167007 38.408009 0.72332394 2.3509886e-38
37.190887 38.426456 0.89302969 2.3509886e-38
37.183323 38.424141 0.54608643 2.3509886e-38
37.170464 38.426628 0.72279036 2.3509886e-38
37.190659 38.449211 0.89317036 2.3509886e-38
37.183105 38.446877 0.54631877 2.3509886e-38
37.170235 38.449326 0.72297764 2.3509886e-38
37.190353 38.471962 0.89331138 2.3509886e-38
37.188667 38.469173 0.54528654 2.3509886e-38
37.177769 38.471436 0.72166049 2.3509886e-38
37.191685 38.490799 0.89315391 2.3509886e-38
37.182201 38.488567 0.54681599 2.3509886e-38
37.177139 38.490379 0.7218796 2.3509886e-38
37.199039 38.511753 0.89198518 2.3509886e-38
37.189499 38.509495 0.54537272 2.3509886e-38
37.174667 38.511955 0.72245431 2.3509886e-38
37.188934 38.530972 0.54561663 2.3509886e-38
37.176052 38.53326 0.72227669 2.3509886e-38
37.194008 38.549564 0.5446161 2.3509886e-38
37.177219 38.552059 0.72212029 2.3509886e-38
37.195274 38.570927 0.54443848 2.3509886e-38
37.180443 38.573254 0.72156668 2.3509886e-38
37.181717 38.595829 0.72137916 2.3509886e-38
37.199509 38.612301 0.5436722 2.3509886e-38
37.184681 38.61454 0.72084665 2.3509886e-38
37.185822 38.637127 0.72065961 2.3509886e-38
37.188793 38.658371 0.72010636 2.3509886e-38
37.183746 38.677467 0.72108078 2.3509886e-38
37.190529 38.698551 0.7197746 2.3509886e-38
37.191406 38.721157 0.71958828 2.3509886e-38
37.196049 38.741112 0.7186693 2.3509886e-38
37.196754 38.762478 0.7184937 2.3509886e-38
37.197357 38.782589 0.7183286 2.3509886e-38
37.191223 38.80146 0.54549611 2.3509886e-38
37.195942 38.802757 0.71854067 2.3509886e-38
37.199589 38.823879 0.54362106 2.3509886e-38
37.196491 38.825378 0.7183553 2.3509886e-38
37.198906 38.846703 0.7178036 2.3509886e-38
37.261909 35.808235 0.60517657 2.3509886e-38
37.222527 35.849243 0.42458987 2.3509886e-38
37.378456 35.810989 0.7786566 2.3509886e-38
37.22821 35.872257 0.42521465 2.3509886e-38
37.375935 35.86541 0.78211582 2.3509886e-38
37.338631 35.903923 0.79004407 2.3509886e-38
37.347752 35.925724 0.78983462 2.3509886e-38
37.287544 35.976292 0.80196273 2.3509886e-38
37.248482 36.016197 0.81021047 2.3509886e-38
37.224384 36.051155 0.81585014 2.3509886e-38
37.215286 36.08128 0.81888151 2.3509886e-38
37.374123 36.041267 0.98072326 2.3509886e-38
37.351559 36.075615 0.98525798 2.3509886e-38
37.341751 36.104717 0.98784101 2.3509886e-38
37.206047 36.151123 0.26095939 2.3509886e-38
37.320274 36.136784 0.99211204 2.3509886e-38
37.282547 36.176422 0.99888539 2.3509886e-38
37.28775 36.165405 0.049431324 2.3509886e-38
37.222416 36.194439 0.44965482 2.3509886e-38
37.29821 36.189892 0.43403339 2.3509886e-38
37.271858 36.881775 0.29584467 2.3509886e-38
37.201248 36.942509 -0.057590723 2.3509886e-38
37.392773 36.924782 1.1921546 2.3509886e-38
37.33572 36.96426 1.1997058 2.3509886e-38
37.204319 36.989166 -0.055223465 2.3509886e-38
37.21077 37.019253 1.215506 2.3509886e-38
37.213219 37.00703 -0.056502581 2.3509886e-38
37.215679 37.030735 -0.05560112 2.3509886e-38
37.228523 37.048912 -0.057999372 2.3509886e-38
37.228325 37.07061 -0.056520462 2.3509886e-38
37.232437 37.093842 -0.056172609 2.3509886e-38
37.23954 37.113583 -0.056909084 2.3509886e-38
37.250317 37.132389 -0.058753967 2.3509886e-38
37.256092 37.155201 -0.058959484 2.3509886e-38
37.253712 37.177364 -0.056925535 2.3509886e-38
37.26432 37.196259 -0.05877018 2.3509886e-38
37.200184 37.223511 1.2210908 2.3509886e-38
37.201847 37.247086 1.2213584 2.3509886e-38
37.266163 37.220028 -0.05786705 2.3509886e-38
37.210556 37.266285 1.2207071 2.3509886e-38
37.276657 37.238991 -0.05971241 2.3509886e-38
37.209549 37.287811 1.2212331 2.3509886e-38
37.272152 37.26157 -0.057122707 2.3509886e-38
37.222607 37.308666 1.220088 2.3509886e-38
37.283134 37.283127 -0.05899024 2.3509886e-38
37.236958 37.326614 1.2187295 2.3509886e-38
37.293465 37.302185 -0.060835838 2.3509886e-38
37.30109 37.336174 1.3885026 2.3509886e-38
37.290928 37.325577 -0.058811188 2.3509886e-38
37.299274 37.345112 -0.060101986 2.3509886e-38
37.3041 37.366798 -0.060294867 2.3509886e-38
37.310459 37.38681 -0.061031342 2.3509886e-38
37.278049 37.406784 1.3915433 2.3509886e-38
37.281055 37.43008 1.3915296 2.3509886e-38
37.31168 37.410622 -0.060125828 2.3509886e-38
37.205833 37.46426 1.0508006 2.3509886e-38
37.283447 37.45084 1.3915386 2.3509886e-38
37.31604 37.431068 -0.060307264 2.3509886e-38
37.277985 37.473236 1.3923057 2.3509886e-38
37.320347 37.451527 -0.060488462 2.3509886e-38
37.284153 37.493168 1.3919363 2.3509886e-38
37.322712 37.472389 -0.060114384 2.3509886e-38
37.201172 37.529537 1.0527936 2.3509886e-38
37.292477 37.514 1.3913661 2.3509886e-38
37.325279 37.49453 -0.059752226 2.3509886e-38
37.282185 37.537041 1.2168624 2.3509886e-38
37.333427 37.51553 -0.061053991 2.3509886e-38
37.279896 37.562828 1.3930593 2.3509886e-38
37.328575 37.540478 -0.058482409 2.3509886e-38
37.283371 37.580627 1.3929026 2.3509886e-38
37.33585 37.557663 -0.059750319 2.3509886e-38
37.309288 37.5994 1.3906138 2.3509886e-38
37.336517 37.58147 -0.058842897 2.3509886e-38
37.255604 37.608154 1.2210279 2.3509886e-38
37.283337 37.626545 1.2179916 2.3509886e-38
37.317547 37.621639 1.3900323 2.3509886e-38
37.344658 37.603832 -0.060156107 2.3509886e-38
37.372246 37.632648 1.3849162 2.3509886e-38
37.346588 37.624722 -0.059780836 2.3509886e-38
37.368187 37.654675 1.3854955 2.3509886e-38
37.350349 37.645264 -0.059960842 2.3509886e-38
37.232204 37.70015 1.2250128 2.3509886e-38
37.381927 37.674793 1.3843541 2.3509886e-38
37.354286 37.667099 -0.060151815 2.3509886e-38
37.236008 37.721622 1.2248251 2.3509886e-38
37.365723 37.687599 -0.062563896 2.3509886e-38
37.274971 37.736992 1.2203791 2.3509886e-38
37.360069 37.71114 -0.059978008 2.3509886e-38
37.24321 37.763336 1.2244613 2.3509886e-38
37.371162 37.730415 -0.062379122 2.3509886e-38
37.285576 37.775726 1.2195625 2.3509886e-38
37.370628 37.750378 -0.061436653 2.3509886e-38
37.220093 37.777493 0.16577685 2.3509886e-38
37.376358 37.773247 -0.062193632 2.3509886e-38
37.387707 37.795216 -0.064617395 2.3509886e-38
37.250172 37.805092 1.224098 2.3509886e-38
37.295036 37.821228 1.2189276 2.3509886e-38
37.241001 37.848114 1.2256408 2.3509886e-38
37.384892 37.814201 -0.063107252 2.3509886e-38
37.262806 37.8354 0.15654337 2.3509886e-38
37.382832 37.838326 -0.061641455 2.3509886e-38
37.253006 37.860344 0.15992212 2.3509886e-38
37.284966 37.885414 1.2207669 2.3509886e-38
37.387897 37.858677 -0.062376022 2.3509886e-38
37.288029 37.905769 1.2205909 2.3509886e-38
37.387207 37.879906 -0.061442852 2.3509886e-38
37.291672 37.895985 0.15088367 2.3509886e-38
37.273727 37.931278 1.2225264 2.3509886e-38
37.214722 37.930824 0.17215168 2.3509886e-38
37.243607 37.958946 1.2263597 2.3509886e-38
37.397793 37.925838 -0.062955618 2.3509886e-38
37.229477 37.951851 0.16888916 2.3509886e-38
37.275963 37.975029 1.2226286 2.3509886e-38
37.395008 37.947334 -0.06146574 2.3509886e-38
37.211273 37.975056 0.17433822 2.3509886e-38
37.284679 37.994545 1.2217422 2.3509886e-38
37.221725 37.994148 0.17211998 2.3509886e-38
37.285473 38.015167 1.2218046 2.3509886e-38
37.306057 38.034454 1.2194836 2.3509886e-38
37.223473 38.036308 0.17278516 2.3509886e-38
37.27145 38.060974 1.223807 2.3509886e-38
37.232006 38.057014 0.17106736 2.3509886e-38
37.201668 38.062519 0.35985136 2.3509886e-38
37.200947 38.09161 1.0610451 2.3509886e-38
37.260548 38.085571 1.225273 2.3509886e-38
37.356079 38.075039 1.3891933 2.3509886e-38
37.240639 38.079029 0.16933823 2.3509886e-38
37.20343 38.111732 1.0608732 2.3509886e-38
37.245056 38.099033 0.16865373 2.3509886e-38
37.207825 38.131626 1.0604178 2.3509886e-38
37.263531 38.126389 1.2251639 2.3509886e-38
37.345284 38.11805 1.3903699 2.3509886e-38
37.209114 38.123951 0.17871141 2.3509886e-38
37.264244 38.149452 1.2252069 2.3509886e-38
37.330204 38.143215 1.3918923 2.3509886e-38
37.242504 38.14299 0.17033303 2.3509886e-38
37.204395 38.149036 0.36098516 2.3509886e-38
37.200714 38.173267 1.0617762 2.3509886e-38
37.274178 38.166306 1.2241054 2.3509886e-38
37.330284 38.161362 1.3919308 2.3509886e-38
37.213806 38.164265 0.17836797 2.3509886e-38
37.208351 38.166431 0.36036885 2.3509886e-38
37.270817 38.189831 1.2246237 2.3509886e-38
37.326927 38.185062 1.3923082 2.3509886e-38
37.201641 38.21772 1.0619695 2.3509886e-38
37.271194 38.211632 1.224678 2.3509886e-38
37.339195 38.205742 1.3911676 2.3509886e-38
37.205486 38.211365 0.36185968 2.3509886e-38
37.201675 38.236794 1.0620931 2.3509886e-38
37.273212 38.230675 1.2245165 2.3509886e-38
37.349152 38.224125 1.3902397 2.3509886e-38
37.205978 38.259232 1.0616176 2.3509886e-38
37.341633 38.248238 1.3910004 2.3509886e-38
37.236496 38.248615 0.17405748 2.3509886e-38
37.219501 38.251911 0.35917521 2.3509886e-38
37.204056 38.279758 1.0620148 2.3509886e-38
37.330959 38.268543 1.21773 2.3509886e-38
37.206017 38.299889 1.0618447 2.3509886e-38
37.263775 38.295734 1.2258818 2.3509886e-38
37.206066 38.293983 0.36303282 2.3509886e-38
37.206184 38.322727 1.0619375 2.3509886e-38
37.335129 38.312077 1.2173624 2.3509886e-38
37.221466 38.313862 0.17915452 2.3509886e-38
37.214012 38.316093 0.36144161 2.3509886e-38
37.210106 38.343941 1.0614731 2.3509886e-38
37.317341 38.335648 1.2195582 2.3509886e-38
37.205864 38.363354 1.0621662 2.3509886e-38
37.319035 38.354813 1.2193969 2.3509886e-38
37.225098 38.354244 0.17881441 2.3509886e-38
37.204082 38.357635 0.3643688 2.3509886e-38
37.207695 38.384747 1.0619862 2.3509886e-38
37.342659 38.374687 1.2165956 2.3509886e-38
37.223351 38.377529 0.35998809 2.3509886e-38
37.344566 38.397766 1.2164018 2.3509886e-38
37.244228 38.397148 0.17434597 2.3509886e-38
37.211536 38.407242 1.0615119 2.3509886e-38
37.207787 38.401691 0.36399841 2.3509886e-38
37.213043 38.426132 1.0613533 2.3509886e-38
37.34412 38.41716 1.2164786 2.3509886e-38
37.236103 38.416908 0.17674756 2.3509886e-38
37.222858 38.419487 0.36057222 2.3509886e-38
37.214783 38.448807 1.0611634 2.3509886e-38
37.312233 38.44281 1.2203346 2.3509886e-38
37.243633 38.439217 0.17502022 2.3509886e-38
37.209091 38.443398 0.36411703 2.3509886e-38
37.216454 38.471485 1.0609738 2.3509886e-38
37.341648 38.463768 1.2168069 2.3509886e-38
37.260735 38.460854 0.17073143 2.3509886e-38
37.226276 38.46492 0.36019182 2.3509886e-38
37.219765 38.49025 1.0605315 2.3509886e-38
37.350933 38.482441 1.215693 2.3509886e-38
37.227615 38.483852 0.36003375 2.3509886e-38
37.22517 38.511414 1.0597838 2.3509886e-38
37.334583 38.505466 1.2176559 2.3509886e-38
37.248474 38.50399 0.35518432 2.3509886e-38
37.200428 38.533127 0.89180696 2.3509886e-38
37.226562 38.532864 1.059605 2.3509886e-38
37.37365 38.524811 1.212945 2.3509886e-38
37.257229 38.523529 0.17226219 2.3509886e-38
37.214943 38.527802 0.36341226 2.3509886e-38
37.201599 38.551987 0.89164996 2.3509886e-38
37.225761 38.551918 1.0597318 2.3509886e-38
37.333229 38.546696 1.2177913 2.3509886e-38
37.241348 38.545124 0.35718226 2.3509886e-38
37.200897 38.573486 0.89180255 2.3509886e-38
37.230988 38.573135 1.0589846 2.3509886e-38
37.318661 38.569397 1.2195182 2.3509886e-38
37.26548 38.563759 0.17038715 2.3509886e-38
37.242622 38.566628 0.35700345 2.3509886e-38
37.204144 38.596012 0.89128411 2.3509886e-38
37.232269 38.595863 1.0587958 2.3509886e-38
37.339783 38.591297 1.2169418 2.3509886e-38
37.272556 38.586277 0.16865969 2.3509886e-38
37.245846 38.589294 0.35634708 2.3509886e-38
37.200455 38.593327 0.54340661 2.3509886e-38
37.209087 38.614674 0.89046657 2.3509886e-38
37.2313 38.614914 1.0589232 2.3509886e-38
37.340809 38.610523 1.2167825 2.3509886e-38
37.252686 38.607964 0.35478783 2.3509886e-38
37.210232 38.637337 0.89027894 2.3509886e-38
37.232449 38.637646 1.058735 2.3509886e-38
37.369736 38.63221 1.2132506 2.3509886e-38
37.249954 38.63097 0.3555336 2.3509886e-38
37.204556 38.634739 0.54264057 2.3509886e-38
37.209278 38.658836 0.89043236 2.3509886e-38
37.235443 38.659023 1.0582727 2.3509886e-38
37.352924 38.654922 1.2152176 2.3509886e-38
37.277683 38.649719 0.16762078 2.3509886e-38
37.229607 38.653522 0.36049652 2.3509886e-38
37.203617 38.656223 0.54288554 2.3509886e-38
37.21209 38.677635 0.88994575 2.3509886e-38
37.242222 38.677711 1.0572618 2.3509886e-38
37.361717 38.673832 1.2141037 2.3509886e-38
37.394386 38.673828 1.3853192 2.3509886e-38
37.276604 38.66888 0.16797602 2.3509886e-38
37.230453 38.672466 0.36034 2.3509886e-38
37.206413 38.675011 0.54230762 2.3509886e-38
37.214958 38.698963 0.88943827 2.3509886e-38
37.241146 38.699295 1.0573694 2.3509886e-38
37.311047 38.697815 1.2201314 2.3509886e-38
37.391327 38.695942 1.3855226 2.3509886e-38
37.241066 38.693527 0.35782552 2.3509886e-38
37.207306 38.696411 0.54213107 2.3509886e-38
37.217808 38.721569 0.88892066 2.3509886e-38
37.240051 38.72213 1.0574666 2.3509886e-38
37.341702 38.719658 1.2163596 2.3509886e-38
37.390236 38.719246 1.3855236 2.3509886e-38
37.224461 38.71698 0.36184537 2.3509886e-38
37.202324 38.719299 0.54321098 2.3509886e-38
37.218529 38.741737 0.88875473 2.3509886e-38
37.246708 38.742149 1.0564454 2.3509886e-38
37.354343 38.739746 1.2147577 2.3509886e-38
37.258217 38.735973 0.3537308 2.3509886e-38
37.201092 38.739498 0.54346764 2.3509886e-38
37.219234 38.763168 0.88857853 2.3509886e-38
37.247417 38.76366 1.0562686 2.3509886e-38
37.347122 38.761837 1.215534 2.3509886e-38
37.20961 38.76062 0.54160261 2.3509886e-38
37.221809 38.783283 0.88808215 2.3509886e-38
37.25396 38.783733 1.0552473 2.3509886e-38
37.375526 38.78154 1.2120199 2.3509886e-38
37.284309 38.77557 0.1660707 2.3509886e-38
37.21217 38.780708 0.54101479 2.3509886e-38
37.234623 38.797337 0.17924249 2.3509886e-38
37.263977 38.797997 0.3522855 2.3509886e-38
37.226303 38.803352 0.88725483 2.3509886e-38
37.250553 38.804108 1.0556512 2.3509886e-38
37.372116 38.80225 1.212329 2.3509886e-38
37.228828 38.826023 0.88673782 2.3509886e-38
37.257046 38.826756 1.0546093 2.3509886e-38
37.382607 38.825184 1.2109439 2.3509886e-38
37.204254 38.820854 0.18726528 2.3509886e-38
37.225651 38.821796 0.36145294 2.3509886e-38
37.231255 38.847443 0.8862313 2.3509886e-38
37.257504 38.848297 1.0544331 2.3509886e-38
37.33741 38.848045 1.2162642 2.3509886e-38
37.204708 38.842251 0.18709028 2.3509886e-38
37.204723 38.843716 0.36642301 2.3509886e-38
37.32317 38.842609 0.51682758 2.3509886e-38
37.233597 38.867611 0.88573539 2.3509886e-38
37.261833 38.868504 1.0536972 2.3509886e-38
37.369553 38.867973 1.2122703 2.3509886e-38
37.208942 38.862316 0.18589973 2.3509886e-38
37.212868 38.863705 0.36438739 2.3509886e-38
37.201241 38.866783 0.71726215 2.3509886e-38
37.23592 38.89032 0.88521886 2.3509886e-38
37.26614 38.89127 1.0529407 2.3509886e-38
37.381821 38.890961 1.2106462 2.3509886e-38
37.220886 38.8848 0.18263531 2.3509886e-38
37.219048 38.886295 0.36279869 2.3509886e-38
37.203552 38.889393 0.71670043 2.3509886e-38
37.238129 38.909248 0.8847332 2.3509886e-38
37.26836 38.910278 1.0525004 2.3509886e-38
37.350292 38.910679 1.2143166 2.3509886e-38
37.355179 38.900436 -0.037069559 2.3509886e-38
37.226921 38.903645 0.18094158 2.3509886e-38
37.213455 38.905285 0.36404836 2.3509886e-38
37.357368 38.904858 0.50913131 2.3509886e-38
37.203785 38.908264 0.71654677 2.3509886e-38
37.242271 38.929436 0.88390625 2.3509886e-38
37.266579 38.930603 1.0526203 2.3509886e-38
37.358437 38.931141 1.2131923 2.3509886e-38
37.226707 38.922379 0.00015091896 2.3509886e-38
37.254181 38.923557 0.1735909 2.3509886e-38
37.219482 38.925385 0.3624804 2.3509886e-38
37.285244 38.926155 0.52460384 2.3509886e-38
37.203983 38.928394 0.71638286 2.3509886e-38
37.242424 38.952202 0.88372135 2.3509886e-38
37.266731 38.953442 1.0524348 2.3509886e-38
37.328808 38.954453 1.2165946 2.3509886e-38
37.211498 38.945221 0.0044307709 2.3509886e-38
37.252693 38.947849 0.35433984 2.3509886e-38
37.246307 38.949329 0.53287268 2.3509886e-38
37.208065 38.951015 0.71544433 2.3509886e-38
37.246452 38.973686 0.88288426 2.3509886e-38
37.270771 38.975002 1.0516889 2.3509886e-38
37.336834 38.976181 1.2154605 2.3509886e-38
37.225021 38.966579 0.00035047531 2.3509886e-38
37.367496 38.968899 0.32655001 2.3509886e-38
37.23661 38.970886 0.53481197 2.3509886e-38
37.212074 38.972401 0.71451616 2.3509886e-38
37.246468 38.992668 0.88273048 2.3509886e-38
37.27475 38.994041 1.0509635 2.3509886e-38
37.223118 38.985516 0.00075483322 2.3509886e-38
37.329823 38.986786 0.15305269 2.3509886e-38
37.242493 38.989838 0.53338993 2.3509886e-38
37.2062 38.991299 0.71549511 2.3509886e-38
37.246429 39.014183 0.88255632 2.3509886e-38
37.278671 39.015644 1.0502177 2.3509886e-38
37.224998 39.006969 2.3126602e-05 2.3509886e-38
37.310452 39.008533 0.1580112 2.3509886e-38
37.299419 39.009991 0.34260142 2.3509886e-38
37.228771 39.011322 0.53617597 2.3509886e-38
37.212051 39.012707 0.71418965 2.3509886e-38
37.250263 39.03698 0.88170922 2.3509886e-38
37.276577 39.038513 1.0503184 2.3509886e-38
37.224888 39.029694 -0.0001604557 2.3509886e-38
37.25042 39.031261 0.17374492 2.3509886e-38
37.309029 39.032982 0.34007478 2.3509886e-38
37.226707 39.034039 0.53641522 2.3509886e-38
37.209976 39.03537 0.71438384 2.3509886e-38
37.252087 39.055988 0.88122439 2.3509886e-38
37.278412 39.057587 1.0498788 2.3509886e-38
37.348465 39.05954 1.2133495 2.3509886e-38
37.234344 39.048691 -0.0031049252 2.3509886e-38
37.248337 39.050247 0.17410505 2.3509886e-38
37.295269 39.052036 0.34319782 2.3509886e-38
37.226559 39.052971 0.53626227 2.3509886e-38
37.217686 39.054314 0.71272123 2.3509886e-38
37.253815 39.078804 0.88070905 2.3509886e-38
37.284103 39.080528 1.0488375 2.3509886e-38
37.346233 39.082615 1.2134027 2.3509886e-38
37.226421 39.071365 -0.0010547638 2.3509886e-38
37.228767 39.072845 0.17905748 2.3509886e-38
37.252251 39.074535 0.353315 2.3509886e-38
37.232182 39.075752 0.53480995 2.3509886e-38
37.207626 39.0769 0.71442604 2.3509886e-38
37.255474 39.101631 0.88019395 2.3509886e-38
37.287746 39.103477 1.0480818 2.3509886e-38
37.353855 39.105816 1.2122582 2.3509886e-38
37.24147 39.094288 -0.0057053566 2.3509886e-38
37.228607 39.097023 0.35875142 2.3509886e-38
37.229912 39.098461 0.53505003 2.3509886e-38
37.205349 39.099529 0.71462119 2.3509886e-38
37.261097 39.119469 0.87905657 2.3509886e-38
37.289429 39.121326 1.0476527 2.3509886e-38
37.353558 39.123791 1.2121136 2.3509886e-38
37.248856 39.112118 -0.0080814362 2.3509886e-38
37.270679 39.113918 0.16743064 2.3509886e-38
37.231575 39.116173 0.53448462 2.3509886e-38
37.208984 39.11721 0.71372426 2.3509886e-38
37.25671 39.142216 0.87953639 2.3509886e-38
37.28701 39.144199 1.0477545 2.3509886e-38
37.359066 39.147022 1.2112088 2.3509886e-38
37.233055 39.134628 -0.0037965775 2.3509886e-38
37.262505 39.136635 0.16930211 2.3509886e-38
37.233089 39.138947 0.5338788 2.3509886e-38
37.21051 39.139912 0.71316457 2.3509886e-38
37.264114 39.163933 0.87803698 2.3509886e-38
37.294437 39.166008 1.0464377 2.3509886e-38
37.362545 39.168953 1.2105539 2.3509886e-38
37.240253 39.156277 -0.0062031746 2.3509886e-38
37.254292 39.158035 0.1711843 2.3509886e-38
37.309032 39.160686 0.33857906 2.3509886e-38
37.232605 39.160419 0.53370667 2.3509886e-38
37.215919 39.161449 0.7118597 2.3509886e-38
37.26955 39.183113 0.87688935 2.3509886e-38
37.295937 39.185165 1.0459988 2.3509886e-38
37.366028 39.188339 1.2099198 2.3509886e-38
37.235935 39.175156 -0.0052380562 2.3509886e-38
37.331875 39.180408 0.33280361 2.3509886e-38
37.237991 39.179516 0.53228498 2.3509886e-38
37.205627 39.180107 0.71359706 2.3509886e-38
37.227654 39.196438 -0.0031754971 2.3509886e-38
37.251278 39.198532 0.17137349 2.3509886e-38
37.272888 39.204803 0.87605309 2.3509886e-38
37.299286 39.206936 1.0452536 2.3509886e-38
37.371368 39.210369 1.2090251 2.3509886e-38
37.329323 39.202126 0.33309805 2.3509886e-38
37.237389 39.201004 0.53211319 2.3509886e-38
37.212879 39.201721 0.71191454 2.3509886e-38
37.278091 39.227848 0.87487483 2.3509886e-38
37.298573 39.229877 1.0450703 2.3509886e-38
37.378586 39.233788 1.2078803 2.3509886e-38
37.244221 39.219688 -0.008384943 2.3509886e-38
37.254433 39.221451 0.17016351 2.3509886e-38
37.252811 39.222843 0.35118914 2.3509886e-38
37.246449 39.22406 0.5298146 2.3509886e-38
37.283356 39.247112 0.87372708 2.3509886e-38
37.30188 39.249126 1.0443459 2.3509886e-38
37.379917 39.253181 1.207486 2.3509886e-38
37.243576 39.238674 -0.0085363388 2.3509886e-38
37.307877 39.242252 0.15562034 2.3509886e-38
37.324066 39.244244 0.33369792 2.3509886e-38
37.243851 39.242977 0.53008652 2.3509886e-38
37.246864 39.244476 0.70478034 2.3509886e-38
37.284485 39.270081 0.8732127 2.3509886e-38
37.303013 39.272148 1.0438769 2.3509886e-38
37.38303 39.27652 1.2068212 2.3509886e-38
37.244656 39.26152 -0.0092766285 2.3509886e-38
37.27853 39.265636 0.34429419 2.3509886e-38
37.248871 39.265968 0.52863455 2.3509886e-38
37.240139 39.26704 0.70573282 2.3509886e-38
37.291611 39.289471 0.87173307 2.3509886e-38
37.312141 39.291672 1.042294 2.3509886e-38
37.388214 39.296097 1.2059469 2.3509886e-38
37.243904 39.280506 -0.0094277859 2.3509886e-38
37.269573 39.282948 0.16505218 2.3509886e-38
37.277771 39.284706 0.34414244 2.3509886e-38
37.283276 39.286339 0.52086091 2.3509886e-38
37.241348 39.286083 0.70520377 2.3509886e-38
37.29266 39.311203 0.87122905 2.3509886e-38
37.317154 39.313629 1.041263 2.3509886e-38
37.391247 39.318195 1.2052925 2.3509886e-38
37.269852 39.303139 -0.017422438 2.3509886e-38
37.278313 39.304939 0.16231 2.3509886e-38
37.247715 39.305092 0.35100222 2.3509886e-38
37.284309 39.308044 0.52026558 2.3509886e-38
37.244358 39.307751 0.70427668 2.3509886e-38
37.297585 39.333118 0.87006092 2.3509886e-38
37.330006 39.335983 1.0390874 2.3509886e-38
37.398186 39.340496 1.2041576 2.3509886e-38
37.389729 39.330128 -0.05280304 2.3509886e-38
37.265743 39.326031 0.16522336 2.3509886e-38
37.262276 39.327312 0.34708083 2.3509886e-38
37.36924 39.333561 0.50145686 2.3509886e-38
37.251225 39.329613 0.7025938 2.3509886e-38
37.304352 39.356441 0.86855066 2.3509886e-38
37.338772 39.359505 1.0374734 2.3509886e-38
37.256912 39.348507 0.16709912 2.3509886e-38
37.274761 39.3508 0.3436178 2.3509886e-38
37.257965 39.352787 0.70090044 2.3509886e-38
37.305336 39.375675 0.86806691 2.3509886e-38
37.331852 39.378422 1.0381801 2.3509886e-38
37.254002 39.367424 0.16746283 2.3509886e-38
37.271835 39.369762 0.34393585 2.3509886e-38
37.264832 39.372204 0.69923723 2.3509886e-38
37.314007 39.397896 0.86623466 2.3509886e-38
37.256695 39.389172 0.16626406 2.3509886e-38
37.272606 39.391457 0.34329605 2.3509886e-38
37.271507 39.394196 0.69755387 2.3509886e-38
37.328697 39.400074 1.0382944 2.3509886e-38
37.320564 39.421341 0.86472404 2.3509886e-38
37.333305 39.42345 1.0372534 2.3509886e-38
37.265034 39.412537 0.16351199 2.3509886e-38
37.263535 39.413879 0.34499168 2.3509886e-38
37.331436 39.419163 0.50796843 2.3509886e-38
37.276077 39.417389 0.69623864 2.3509886e-38
37.319408 39.440514 0.86457288 2.3509886e-38
37.336098 39.442894 1.0365292 2.3509886e-38
37.26582 39.431686 0.16284776 2.3509886e-38
37.310905 39.435802 0.33311546 2.3509886e-38
37.263939 39.434402 0.52222586 2.3509886e-38
37.280811 39.436802 0.69495332 2.3509886e-38
37.325832 39.464016 0.8630625 2.3509886e-38
37.350449 39.466957 1.0340559 2.3509886e-38
37.28981 39.458958 0.51611233 2.3509886e-38
37.293087 39.460556 0.69212449 2.3509886e-38
37.334232 39.486416 0.86122954 2.3509886e-38
37.347031 39.48864 1.0341709 2.3509886e-38
37.305931 39.481758 0.51212704 2.3509886e-38
37.299496 39.482723 0.69044077 2.3509886e-38
37.340687 39.50745 0.85973895 2.3509886e-38
37.35746 39.509987 1.0322902 2.3509886e-38
37.370617 39.505302 0.31712043 2.3509886e-38
37.32597 39.503647 0.5073036 2.3509886e-38
37.305923 39.503658 0.68876672 2.3509886e-38
37.35289 39.530235 0.85724068 2.3509886e-38
37.377605 39.533394 1.0289664 2.3509886e-38
37.355469 39.526215 0.32023323 2.3509886e-38
37.330254 39.525818 0.50586104 2.3509886e-38
37.316116 39.526196 0.68632555 2.3509886e-38
37.353317 39.550926 0.85674715 2.3509886e-38
37.389877 39.555042 1.0267982 2.3509886e-38
37.396584 39.549942 0.30974853 2.3509886e-38
37.342365 39.547318 0.50273252 2.3509886e-38
37.326336 39.547516 0.68389416 2.3509886e-38
37.365486 39.572536 0.85425866 2.3509886e-38
37.380383 39.575073 1.0277838 2.3509886e-38
37.389164 39.570164 0.31099486 2.3509886e-38
37.34272 39.567986 0.50214791 2.3509886e-38
37.336494 39.568893 0.68146265 2.3509886e-38
37.37738 39.596802 0.85174966 2.3509886e-38
37.380486 39.598427 1.0273156 2.3509886e-38
37.3545 39.592167 0.49899888 2.3509886e-38
37.356167 39.593693 0.67711771 2.3509886e-38
37.389305 39.619854 0.84925044 2.3509886e-38
37.392456 39.621494 1.0251373 2.3509886e-38
37.374096 39.615791 0.49416292 2.3509886e-38
37.364124 39.616352 0.67505383 2.3509886e-38
37.395676 39.638412 0.48891199 2.3509886e-38
37.381905 39.638618 0.67110646 2.3509886e-38
37.39566 39.660542 0.48831701 2.3509886e-38
37.393639 39.661758 0.66828465 2.3509886e-38
37.497166 35.806244 -0.034519672 2.3509886e-38
37.505459 35.825901 -0.034708738 2.3509886e-38
37.518356 35.84671 -0.035936356 2.3509886e-38
37.529415 35.868309 -0.03665781 2.3509886e-38
37.525566 35.894531 -0.03331089 2.3509886e-38
37.553223 35.918781 0.95128834 2.3509886e-38
37.540066 35.9147 -0.035046101 2.3509886e-38
37.449001 35.98856 0.9683553 2.3509886e-38
37.553253 35.936974 -0.036286831 2.3509886e-38
37.561199 35.956776 -0.036475658 2.3509886e-38
37.577332 35.976379 -0.038718224 2.3509886e-38
37.52737 36.838722 1.1744806 2.3509886e-38
37.44738 36.884186 1.1848534 2.3509886e-38
37.516579 37.216534 1.3665891 2.3509886e-38
37.467842 37.252861 1.3716719 2.3509886e-38
37.424175 37.284935 1.3762136 2.3509886e-38
37.592072 37.727375 1.5446473 2.3509886e-38
37.509407 37.765476 1.5507743 2.3509886e-38
37.440369 37.800823 1.555898 2.3509886e-38
37.419624 37.822762 1.5574689 2.3509886e-38
37.42524 37.845776 1.5571227 2.3509886e-38
37.418564 37.868027 1.5576642 2.3509886e-38
37.421684 37.888752 1.557485 2.3509886e-38
37.419201 37.912945 1.5577164 2.3509886e-38
37.403938 37.901169 -0.065534353 2.3509886e-38
37.426517 37.935699 1.5572268 2.3509886e-38
37.428368 37.977745 1.5571585 2.3509886e-38
37.40358 37.967213 -0.063311577 2.3509886e-38
37.441067 37.997166 1.556258 2.3509886e-38
37.402576 37.988434 -0.062377214 2.3509886e-38
37.438061 38.020035 1.5565021 2.3509886e-38
37.413109 38.009407 -0.06479001 2.3509886e-38
37.438946 38.042366 1.5564575 2.3509886e-38
37.412155 38.031925 -0.063866615 2.3509886e-38
37.443882 38.065498 1.5561128 2.3509886e-38
37.417011 38.054996 -0.064622402 2.3509886e-38
37.43259 38.087994 1.5569477 2.3509886e-38
37.411945 38.076683 -0.062574625 2.3509886e-38
37.429153 38.10947 1.5572046 2.3509886e-38
37.418259 38.096943 -0.063863754 2.3509886e-38
37.433884 38.132587 1.5568608 2.3509886e-38
37.430542 38.119144 -0.066844225 2.3509886e-38
37.428043 38.151665 1.5572853 2.3509886e-38
37.424999 38.138206 -0.064774036 2.3509886e-38
37.43264 38.174789 1.556942 2.3509886e-38
37.429523 38.161346 -0.06552887 2.3509886e-38
37.437023 38.196636 1.5566096 2.3509886e-38
37.430016 38.183624 -0.065159798 2.3509886e-38
37.439091 38.216114 1.5564444 2.3509886e-38
37.432083 38.203098 -0.06532526 2.3509886e-38
37.433567 38.240307 1.5568264 2.3509886e-38
37.430672 38.226871 -0.064409971 2.3509886e-38
37.441601 38.260479 1.5562155 2.3509886e-38
37.432755 38.247646 -0.064585686 2.3509886e-38
37.439651 38.281651 1.55633 2.3509886e-38
37.444336 38.267487 -0.067544222 2.3509886e-38
37.44186 38.305031 1.5561326 2.3509886e-38
37.438896 38.29163 -0.06551528 2.3509886e-38
37.447849 38.326759 1.5556561 2.3509886e-38
37.444736 38.313374 -0.066815138 2.3509886e-38
37.449574 38.346268 1.5554919 2.3509886e-38
37.442635 38.333229 -0.065865755 2.3509886e-38
37.449478 38.368546 1.5554513 2.3509886e-38
37.44453 38.355335 -0.066051722 2.3509886e-38
37.457378 38.391472 1.5548186 2.3509886e-38
37.44455 38.37891 -0.065691471 2.3509886e-38
