# .PCD v0.7 - Point Cloud Data file format
VERSION 0.7
FIELDS x y z rgb
SIZE 4 4 4 4
TYPE F F F F
COUNT 1 1 1 1
WIDTH 149
HEIGHT 1
VIEWPOINT 0 0 0 1 0 0 0
POINTS 149
DATA ascii
35.936821 32.63673 0.9076916 1.2472041e-38
35.939629 32.669239 0.91048002 1.2472041e-38
35.841179 32.776573 1.1316729 1.2472041e-38
35.944912 32.668503 1.3199002 1.2472041e-38
35.869946 32.738613 0.51357973 1.2472041e-38
35.936859 32.707481 0.9143554 1.2472041e-38
35.859879 32.791473 1.1312526 1.2472041e-38
35.88586 32.798237 0.72509181 1.2472041e-38
35.941559 32.741982 0.91712093 1.2472041e-38
35.966915 32.717705 1.1165981 1.2472041e-38
35.997433 32.688019 1.3175097 1.2472041e-38
35.901505 32.779293 0.51461816 1.2472041e-38
35.950775 32.767212 0.91855371 1.2472041e-38
35.984413 32.734402 1.1164 1.2472041e-38
35.990086 32.760994 0.91400909 1.2472041e-38
35.999111 32.754013 1.116653 1.2472041e-38
35.901554 32.887196 0.73306954 1.2472041e-38
35.916882 32.907578 0.73349798 1.2472041e-38
35.972782 32.88213 0.72409999 1.2472041e-38
35.989582 33.136047 0.14126921 1.2472041e-38
35.817654 33.203796 -0.022093296 1.2472041e-38
35.830647 33.225193 -0.020793676 1.2472041e-38
35.844944 33.245258 -0.019994736 1.2472041e-38
35.911026 33.219925 0.76795316 1.2472041e-38
35.857178 33.263309 -0.019171953 1.2472041e-38
35.916794 33.248512 0.77029502 1.2472041e-38
35.879669 33.27533 -0.021375895 1.2472041e-38
35.938255 33.225334 0.56567967 1.2472041e-38
35.923435 33.278118 0.77262533 1.2472041e-38
35.892002 33.29924 -0.019587994 1.2472041e-38
35.910881 33.322052 0.77879953 1.2472041e-38
35.906456 33.317078 -0.019278049 1.2472041e-38
35.913391 33.353264 0.78178 1.2472041e-38
35.934433 33.323944 -0.023485899 1.2472041e-38
35.959373 33.304771 0.37364173 1.2472041e-38
35.993572 33.274391 0.56397259 1.2472041e-38
35.940811 33.347527 -0.020661116 1.2472041e-38
35.982849 33.314499 0.57035184 1.2472041e-38
35.954823 33.376915 0.77917004 1.2472041e-38
35.954693 33.367863 -0.019862652 1.2472041e-38
35.978931 33.347282 0.17602587 1.2472041e-38
35.982502 33.348495 0.57452154 1.2472041e-38
35.972889 33.393269 0.77864838 1.2472041e-38
35.968502 33.388229 -0.01906395 1.2472041e-38
35.970535 33.393211 0.58160865 1.2472041e-38
35.970486 33.42157 -0.013769865 1.2472041e-38
35.953476 33.439781 0.19473565 1.2472041e-38
35.970829 33.428112 0.5857687 1.2472041e-38
35.973679 33.447784 -0.0099413395 1.2472041e-38
35.910904 33.508423 0.21277785 1.2472041e-38
35.985363 33.443775 0.58558965 1.2472041e-38
35.932846 33.520721 0.21075487 1.2472041e-38
35.945679 33.543358 0.21190882 1.2472041e-38
35.954296 33.598583 0.41452694 1.2472041e-38
36.142815 32.011024 0.38258779 1.2472041e-38
36.173817 32.020061 0.37981105 1.2472041e-38
36.161087 32.070786 0.16459918 1.2472041e-38
36.173637 32.059391 0.38504791 1.2472041e-38
36.194721 32.07198 0.15989447 1.2472041e-38
36.018898 32.265949 -0.0053451061 1.2472041e-38
36.045181 32.279121 -0.007390976 1.2472041e-38
36.061264 32.298939 -0.0066871643 1.2472041e-38
36.082527 32.31303 -0.0077996254 1.2472041e-38
36.090611 32.34156 -0.0043706894 1.2472041e-38
36.101223 32.367214 -0.0018496513 1.2472041e-38
36.11404 32.355923 0.21402216 1.2472041e-38
36.115356 32.393585 0.00019145012 1.2472041e-38
36.077637 32.436951 0.23137748 1.2472041e-38
36.141338 32.40715 -0.0018563271 1.2472041e-38
36.171661 32.411552 -0.0061509609 1.2472041e-38
36.145832 32.441742 0.22194529 1.2472041e-38
36.196663 32.421745 -0.0086293221 1.2472041e-38
36.149311 32.474617 0.22624075 1.2472041e-38
36.063309 32.606213 0.25833476 1.2472041e-38
36.019146 32.700481 1.3167734 1.2472041e-38
36.032669 32.688744 1.5190773 1.2472041e-38
36.000271 32.710434 0.49260235 1.2472041e-38
36.038074 32.715885 1.3163949 1.2472041e-38
36.012917 32.744469 1.5224638 1.2472041e-38
36.027027 32.715096 0.2796222 1.2472041e-38
36.050449 32.693169 0.48367441 1.2472041e-38
36.048462 32.737473 0.90591776 1.2472041e-38
36.023117 32.766132 1.1155393 1.2472041e-38
36.056675 32.733833 1.3161826 1.2472041e-38
36.016178 32.778122 1.5237142 1.2472041e-38
36.082172 32.739826 0.90271568 1.2472041e-38
36.0471 32.778343 1.1144249 1.2472041e-38
36.062721 32.764694 1.3175831 1.2472041e-38
36.115128 32.738773 0.89926553 1.2472041e-38
36.071678 32.785675 1.1128836 1.2472041e-38
36.131702 32.758675 0.69177985 1.2472041e-38
36.148628 32.743896 0.89632022 1.2472041e-38
36.098114 32.797707 1.1115296 1.2472041e-38
36.13689 32.785999 0.694134 1.2472041e-38
36.19838 32.726196 0.88960445 1.2472041e-38
36.129673 32.798153 1.1088573 1.2472041e-38
36.170712 32.759064 1.3098092 1.2472041e-38
36.17012 32.796314 1.1052421 1.2472041e-38
36.023468 32.807449 1.5245665 1.2472041e-38
36.004139 32.812824 0.2972095 1.2472041e-38
36.056732 32.803387 1.3202637 1.2472041e-38
36.045223 32.817535 1.5238485 1.2472041e-38
36.078941 32.819611 1.3196809 1.2472041e-38
36.074402 32.826607 1.5226936 1.2472041e-38
36.03273 32.85453 0.29884815 1.2472041e-38
36.098949 32.834023 1.5217085 1.2472041e-38
36.040512 32.878723 0.30111933 1.2472041e-38
36.149387 32.812328 0.69549704 1.2472041e-38
36.054146 32.903305 0.30253458 1.2472041e-38
36.165966 32.834484 0.6959064 1.2472041e-38
36.165936 32.829597 0.2748692 1.2472041e-38
36.153744 32.844254 0.48874509 1.2472041e-38
36.189056 32.843697 0.69412768 1.2472041e-38
36.168407 32.861786 0.48892069 1.2472041e-38
36.011795 33.053009 0.53422379 1.2472041e-38
36.025772 33.07206 0.33079398 1.2472041e-38
36.022362 33.077782 0.53583658 1.2472041e-38
36.007652 33.120731 0.34044468 1.2472041e-38
36.026443 33.134846 0.13469064 1.2472041e-38
36.01355 33.193367 0.95106208 1.2472041e-38
36.022568 33.217052 0.9522295 1.2472041e-38
36.010628 33.223915 0.55543268 1.2472041e-38
36.042538 33.232224 0.95147824 1.2472041e-38
36.057594 33.248074 0.95129573 1.2472041e-38
36.074604 33.266083 0.95108879 1.2472041e-38
36.005234 33.32473 0.36915696 1.2472041e-38
36.022003 33.34259 0.36895192 1.2472041e-38
36.003933 33.394951 0.37898862 1.2472041e-38
36.000031 33.456356 -0.013650894 1.2472041e-38
36.015591 33.485947 0.7829324 1.2472041e-38
36.035904 33.458233 -0.02038002 1.2472041e-38
36.051773 33.472767 -0.021061182 1.2472041e-38
36.068096 33.490772 -0.021265507 1.2472041e-38
36.08532 33.509884 -0.021482229 1.2472041e-38
36.101067 33.524559 -0.022164345 1.2472041e-38
36.115292 33.546356 -0.021378994 1.2472041e-38
36.138641 33.558125 -0.024090528 1.2472041e-38
36.151367 33.575512 -0.023770809 1.2472041e-38
36.164471 33.596363 -0.022973537 1.2472041e-38
36.230602 32.733067 0.88692784 1.2472041e-38
36.201508 32.767193 1.3081465 1.2472041e-38
36.216808 32.790939 1.3084564 1.2472041e-38
36.382217 32.610584 -0.0094418526 1.2472041e-38
36.248569 32.791798 1.3062918 1.2472041e-38
36.397499 32.628708 -0.0091824532 1.2472041e-38
36.22411 32.84544 0.69009662 1.2472041e-38
36.274818 32.905289 1.1042156 1.2472041e-38
36.2696 32.948502 1.1078336 1.2472041e-38
36.267815 32.983932 1.1105731 1.2472041e-38
