# .PCD v0.7 - Point Cloud Data file format
VERSION 0.7
FIELDS x y z rgb
SIZE 4 4 4 4
TYPE F F F F
COUNT 1 1 1 1
WIDTH 350
HEIGHT 1
VIEWPOINT 0 0 0 1 0 0 0
POINTS 350
DATA ascii
31.807409 35.627102 -0.022783041 2.3509528e-38
31.82151 35.624805 -0.027713776 2.3509528e-38
31.830629 35.631786 -0.026823282 2.3509528e-38
31.842499 35.632328 -0.029809475 2.3509528e-38
31.85243 35.637833 -0.029889822 2.3509528e-38
31.860384 35.648277 -0.027063847 2.3509528e-38
31.872246 35.64893 -0.030050755 2.3509528e-38
31.881824 35.652336 -0.031092644 2.3509528e-38
31.88883 35.664375 -0.027296543 2.3509528e-38
31.905016 35.657532 -0.0351367 2.3509528e-38
31.910522 35.670803 -0.030365705 2.3509528e-38
31.922964 35.671967 -0.033358574 2.3509528e-38
31.956816 35.635044 -0.060613155 2.3509528e-38
31.996109 35.723217 0.084610701 2.3509528e-38
31.995592 35.745777 0.094758511 2.3509528e-38
31.994959 35.768307 0.10490692 2.3509528e-38
31.990473 35.796818 0.1187768 2.3509528e-38
32.011688 34.602242 -0.019247532 2.3509528e-38
32.024681 34.606232 -0.020140171 2.3509528e-38
32.038429 34.610619 -0.021038532 2.3509528e-38
32.052929 34.61541 -0.021942854 2.3509528e-38
32.062012 34.62579 -0.019618988 2.3509528e-38
32.076504 34.628639 -0.021321058 2.3509528e-38
32.090202 34.63319 -0.02222085 2.3509528e-38
32.098362 34.647316 -0.018296719 2.3509528e-38
32.113617 34.64864 -0.020802975 2.3509528e-38
32.129639 34.650391 -0.02331543 2.3509528e-38
32.13768 34.664589 -0.019391298 2.3509528e-38
32.152172 34.665676 -0.021893024 2.3509528e-38
32.164906 34.674118 -0.021193504 2.3509528e-38
32.173706 34.684731 -0.018870592 2.3509528e-38
32.188107 34.687954 -0.020575523 2.3509528e-38
32.198338 34.699379 -0.018264294 2.3509528e-38
32.196041 34.733242 -0.0047006607 2.3509528e-38
32.199993 34.727554 0.1239785 2.3509528e-38
32.188519 34.776814 0.013683796 2.3509528e-38
32.194843 34.766579 0.13909853 2.3509528e-38
32.00539 34.902184 -0.027787924 2.3509528e-38
32.014374 34.912701 -0.02533865 2.3509528e-38
32.026535 34.91674 -0.02627039 2.3509528e-38
32.037678 34.926392 -0.024677515 2.3509528e-38
32.044216 34.939854 -0.020531178 2.3509528e-38
32.061939 34.934643 -0.026542664 2.3509528e-38
32.066521 34.955326 -0.019025564 2.3509528e-38
32.076099 34.964359 -0.017421722 2.3509528e-38
32.088982 34.966976 -0.019200563 2.3509528e-38
32.105915 34.96357 -0.024367809 2.3509528e-38
32.178104 34.827187 0.035277843 2.3509528e-38
32.112774 34.979485 -0.019387245 2.3509528e-38
32.169117 34.874214 0.05526638 2.3509528e-38
32.122944 34.988998 -0.017789364 2.3509528e-38
32.156445 34.927631 0.078470945 2.3509528e-38
32.13905 34.987339 -0.022112131 2.3509528e-38
32.150368 34.968006 0.095249176 2.3509528e-38
32.139915 35.014385 0.1152488 2.3509528e-38
32.130142 35.058762 0.0090017319 2.3509528e-38
32.133389 35.054604 0.13202989 2.3509528e-38
32.121849 35.10173 0.02836442 2.3509528e-38
32.138031 35.073841 0.13836539 2.3509528e-38
32.110035 35.149017 0.050271988 2.3509528e-38
32.146301 35.084663 0.14068854 2.3509528e-38
32.105644 35.183876 0.065407753 2.3509528e-38
32.151665 35.102291 0.14622104 2.3509528e-38
32.16563 35.105892 0.1445148 2.3509528e-38
32.175556 35.113571 0.14523041 2.3509528e-38
32.183884 35.12249 0.1467551 2.3509528e-38
32.196907 35.1278 0.14585197 2.3509528e-38
32.003704 35.212448 -0.022999287 2.3509528e-38
32.012352 35.223175 -0.020424366 2.3509528e-38
32.026234 35.222511 -0.024059534 2.3509528e-38
32.03653 35.230141 -0.023260355 2.3509528e-38
32.051079 35.229927 -0.02690196 2.3509528e-38
32.057247 35.243546 -0.022546053 2.3509528e-38
32.062275 35.260674 -0.016418695 2.3509528e-38
32.075699 35.264061 -0.018289804 2.3509528e-38
32.09996 35.222214 0.082231283 2.3509528e-38
32.079952 35.280842 -0.012156487 2.3509528e-38
32.090103 35.264484 0.10160542 2.3509528e-38
32.081726 35.300377 -0.0042419434 2.3509528e-38
32.081161 35.30315 0.11929381 2.3509528e-38
32.080032 35.330341 0.0089876652 2.3509528e-38
32.083778 35.325493 0.12766039 2.3509528e-38
32.067135 35.376652 0.031999588 2.3509528e-38
32.084103 35.34866 0.13688421 2.3509528e-38
32.093975 35.356453 0.13764131 2.3509528e-38
32.104729 35.362701 0.13755202 2.3509528e-38
32.112099 35.37331 0.14000678 2.3509528e-38
32.122803 35.379612 0.13991725 2.3509528e-38
32.13533 35.382828 0.13813496 2.3509528e-38
32.142601 35.393497 0.14058948 2.3509528e-38
32.007835 35.478882 -0.028007507 2.3509528e-38
32.015579 35.489487 -0.025304079 2.3509528e-38
32.062653 35.409237 0.047013283 2.3509528e-38
32.025047 35.497036 -0.024460554 2.3509528e-38
32.056206 35.444862 0.063804865 2.3509528e-38
32.028538 35.513439 -0.018033028 2.3509528e-38
32.04805 35.481613 0.08149147 2.3509528e-38
32.034348 35.527138 -0.013469934 2.3509528e-38
32.04303 35.514008 0.096508741 2.3509528e-38
32.029301 35.559135 0.0022516251 2.3509528e-38
32.036015 35.549423 0.11330378 2.3509528e-38
32.019875 35.596817 0.021698713 2.3509528e-38
32.036446 35.570549 0.12210822 2.3509528e-38
32.041969 35.584316 0.12646568 2.3509528e-38
32.151386 35.403 0.14219224 2.3509528e-38
32.152653 35.424942 0.1505667 2.3509528e-38
32.167278 35.423241 0.14624965 2.3509528e-38
32.1791 35.426231 0.14447153 2.3509528e-38
32.190594 35.431187 0.14353454 2.3509528e-38
32.199223 35.440807 0.14513695 2.3509528e-38
32.020832 35.618046 0.030912876 2.3509528e-38
32.010727 35.657455 0.051287651 2.3509528e-38
32.042809 35.605762 0.1352663 2.3509528e-38
32.005333 35.68734 0.066088438 2.3509528e-38
32.0578 35.602303 0.12985408 2.3509528e-38
32.070034 35.603493 0.12710726 2.3509528e-38
32.070686 35.624943 0.13590872 2.3509528e-38
32.089115 35.617401 0.12782371 2.3509528e-38
32.099094 35.623638 0.1277374 2.3509528e-38
32.107155 35.632938 0.12942874 2.3509528e-38
32.110195 35.647583 0.13468552 2.3509528e-38
32.126419 35.645172 0.1292603 2.3509528e-38
32.135353 35.653027 0.13006234 2.3509528e-38
32.143677 35.66053 0.13086939 2.3509528e-38
32.157417 35.660904 0.127226 2.3509528e-38
32.169224 35.664337 0.12536037 2.3509528e-38
32.176521 35.673428 0.127056 2.3509528e-38
32.189289 35.67543 0.12430072 2.3509528e-38
32.197117 35.684948 0.12599111 2.3509528e-38
32.213326 33.937283 -0.019622326 2.3509528e-38
32.22427 33.948242 -0.017568111 2.3509528e-38
32.258797 33.953445 -0.021371841 2.3509528e-38
32.272724 33.957695 -0.022183657 2.3509528e-38
32.287724 33.966583 -0.021581888 2.3509528e-38
32.296284 33.984898 -0.016668558 2.3509528e-38
32.380539 33.803291 0.057410955 2.3509528e-38
32.313358 33.984566 -0.019637108 2.3509528e-38
32.367374 33.869831 0.08086133 2.3509528e-38
32.326603 33.994862 -0.018313169 2.3509528e-38
32.356327 33.933254 0.10296142 2.3509528e-38
32.347397 33.993565 0.12371111 2.3509528e-38
32.338299 34.010674 -0.01484561 2.3509528e-38
32.332184 34.057358 0.0022580624 2.3509528e-38
32.338745 34.045731 0.14178932 2.3509528e-38
32.321133 34.118282 0.025084496 2.3509528e-38
32.342064 34.076523 0.15110481 2.3509528e-38
32.309738 34.179096 0.047912836 2.3509528e-38
32.350914 34.095398 0.15570855 2.3509528e-38
32.368652 34.093521 0.1522398 2.3509528e-38
32.382328 34.102287 0.15280366 2.3509528e-38
32.395164 34.114887 0.15470767 2.3509528e-38
32.201614 34.331879 -0.020829678 2.3509528e-38
32.216198 34.336781 -0.021692753 2.3509528e-38
32.22438 34.35508 -0.016474247 2.3509528e-38
32.240509 34.354664 -0.019612312 2.3509528e-38
32.296368 34.241077 0.071466446 2.3509528e-38
32.251804 34.366348 -0.017434835 2.3509528e-38
32.284306 34.301666 0.094299078 2.3509528e-38
32.277637 34.352478 0.11282647 2.3509528e-38
32.260334 34.417992 -0.0001540184 2.3509528e-38
32.268253 34.404083 0.13208485 2.3509528e-38
32.251678 34.467415 0.019519567 2.3509528e-38
32.265244 34.442223 0.14560926 2.3509528e-38
32.241005 34.524155 0.042224646 2.3509528e-38
32.278664 34.451054 0.14621699 2.3509528e-38
32.230194 34.574657 0.062667847 2.3509528e-38
32.290524 34.457054 0.14612567 2.3509528e-38
32.309017 34.453899 0.14171994 2.3509528e-38
32.315647 34.474091 0.14735258 2.3509528e-38
32.328232 34.480591 0.14725471 2.3509528e-38
32.340797 34.487129 0.1471566 2.3509528e-38
32.35067 34.500736 0.14992094 2.3509528e-38
32.364834 34.506096 0.14909923 2.3509528e-38
32.373737 34.521404 0.15258086 2.3509528e-38
32.390484 34.521896 0.14960647 2.3509528e-38
32.218147 34.630795 0.085382462 2.3509528e-38
32.209152 34.680237 0.105057 2.3509528e-38
32.200497 34.786243 0.14508569 2.3509528e-38
32.215523 34.787903 0.14270568 2.3509528e-38
32.224499 34.801052 0.14565039 2.3509528e-38
32.237774 34.806061 0.14479136 2.3509528e-38
32.248554 34.813972 0.14545941 2.3509528e-38
32.259159 34.82394 0.14688241 2.3509528e-38
32.269722 34.833927 0.1483053 2.3509528e-38
32.279522 34.843544 0.14973378 2.3509528e-38
32.296268 34.842251 0.14582992 2.3509528e-38
32.305672 34.855972 0.14876842 2.3509528e-38
32.316288 34.864059 0.14943552 2.3509528e-38
32.327065 34.870159 0.14934754 2.3509528e-38
32.340889 34.8759 0.14848042 2.3509528e-38
32.350517 34.885685 0.14990842 2.3509528e-38
32.36359 34.891094 0.14904666 2.3509528e-38
32.375725 34.898148 0.14894605 2.3509528e-38
32.387123 34.904816 0.14885104 2.3509528e-38
32.399216 34.911938 0.14874983 2.3509528e-38
32.209484 35.130787 0.14415562 2.3509528e-38
32.219082 35.140556 0.14566898 2.3509528e-38
32.230476 35.147179 0.14557445 2.3509528e-38
32.244869 35.14711 0.14226937 2.3509528e-38
32.256245 35.153809 0.14217424 2.3509528e-38
32.270393 35.155811 0.13966656 2.3509528e-38
32.282009 35.16061 0.13877249 2.3509528e-38
32.291462 35.170563 0.1402849 2.3509528e-38
32.303711 35.175831 0.13938475 2.3509528e-38
32.314339 35.182297 0.13929415 2.3509528e-38
32.324944 35.188797 0.13920343 2.3509528e-38
32.330444 35.205093 0.14393258 2.3509528e-38
32.347424 35.202698 0.13900995 2.3509528e-38
32.350895 35.222137 0.14534819 2.3509528e-38
32.366905 35.221394 0.14122927 2.3509528e-38
32.3787 35.224522 0.13953459 2.3509528e-38
32.390499 35.232033 0.13943124 2.3509528e-38
32.212597 35.442753 0.14250612 2.3509528e-38
32.220207 35.45396 0.14495504 2.3509528e-38
32.225582 35.465935 0.14826155 2.3509528e-38
32.248268 35.454605 0.13800347 2.3509528e-38
32.260677 35.45826 0.13621783 2.3509528e-38
32.266598 35.470703 0.13951874 2.3509528e-38
32.277012 35.477463 0.13942659 2.3509528e-38
32.285431 35.487293 0.14102793 2.3509528e-38
32.297169 35.490677 0.13924706 2.3509528e-38
32.30653 35.499039 0.1400013 2.3509528e-38
32.31786 35.50441 0.13906157 2.3509528e-38
32.324951 35.513523 0.14067352 2.3509528e-38
32.334831 35.522369 0.14142203 2.3509528e-38
32.346107 35.527832 0.14048171 2.3509528e-38
32.360428 35.528835 0.13699925 2.3509528e-38
32.37151 35.532055 0.13522208 2.3509528e-38
32.382339 35.539543 0.13512254 2.3509528e-38
32.394444 35.541344 0.13249743 2.3509528e-38
32.417778 33.106735 -0.0090050697 2.3509528e-38
32.43055 33.122307 -0.0059757233 2.3509528e-38
32.444271 33.138325 -0.0029535294 2.3509528e-38
32.468388 33.12376 -0.010605335 2.3509528e-38
32.480858 33.145554 -0.0057044029 2.3509528e-38
32.485485 33.18264 0.0048627853 2.3509528e-38
32.517063 33.111454 0.14402199 2.3509528e-38
32.532963 33.122482 0.1450671 2.3509528e-38
32.545753 33.132217 0.14613378 2.3509528e-38
32.565144 33.140713 0.14599538 2.3509528e-38
32.580433 33.147469 0.14588571 2.3509528e-38
32.595409 33.160412 0.14751446 2.3509528e-38
32.486156 33.228424 0.018575191 2.3509528e-38
32.468487 33.30769 0.044887543 2.3509528e-38
32.450001 33.401157 0.075569391 2.3509528e-38
32.434746 33.475365 0.099992752 2.3509528e-38
32.416393 33.560711 0.12817919 2.3509528e-38
32.406967 33.62492 -0.0041730404 2.3509528e-38
32.414013 33.611664 0.14378119 2.3509528e-38
32.404728 33.667313 0.0098569393 2.3509528e-38
32.414017 33.64917 0.155002 2.3509528e-38
32.424473 33.670628 0.15991271 2.3509528e-38
32.439301 33.677437 0.15980422 2.3509528e-38
32.453316 33.686012 0.16032469 2.3509528e-38
32.468224 33.695057 0.16083813 2.3509528e-38
32.485634 33.701141 0.16008615 2.3509528e-38
32.501076 33.70425 0.1587249 2.3509528e-38
32.520813 33.703144 0.15546179 2.3509528e-38
32.534004 33.715801 0.15723252 2.3509528e-38
32.548706 33.722919 0.15712214 2.3509528e-38
32.562645 33.73394 0.15826333 2.3509528e-38
32.579124 33.742035 0.15813851 2.3509528e-38
32.592915 33.75098 0.15865684 2.3509528e-38
32.401619 35.239166 0.13933349 2.3509528e-38
32.412067 35.245907 0.13924146 2.3509528e-38
32.423149 35.253098 0.13914335 2.3509528e-38
32.437202 35.255722 0.13663113 2.3509528e-38
32.450615 35.257965 0.13412428 2.3509528e-38
32.454605 35.275978 0.13965857 2.3509528e-38
32.46661 35.281769 0.13875508 2.3509528e-38
32.485439 35.274551 0.13142443 2.3509528e-38
32.495037 35.285439 0.13292873 2.3509528e-38
32.506001 35.292877 0.13282907 2.3509528e-38
32.517971 35.298836 0.13192427 2.3509528e-38
32.525543 35.308483 0.13344586 2.3509528e-38
32.540192 35.311935 0.13092494 2.3509528e-38
32.54771 35.321625 0.13244641 2.3509528e-38
32.558155 35.331169 0.13314497 2.3509528e-38
32.57045 35.33535 0.13143992 2.3509528e-38
32.581264 35.343014 0.13133919 2.3509528e-38
32.589725 35.351295 0.13205516 2.3509528e-38
32.404213 35.550392 0.13324475 2.3509528e-38
32.416912 35.552689 0.13061333 2.3509528e-38
32.429169 35.556934 0.12882364 2.3509528e-38
32.438133 35.563324 0.12873971 2.3509528e-38
32.448868 35.571022 0.12863874 2.3509528e-38
32.459442 35.576424 0.12770128 2.3509528e-38
32.468014 35.587124 0.12929523 2.3509528e-38
32.478081 35.594482 0.12919939 2.3509528e-38
32.492294 35.593689 0.12487626 2.3509528e-38
32.603256 35.356491 0.13033748 2.3509528e-38
32.612305 35.36528 0.13104725 2.3509528e-38
32.621513 35.376495 0.13255024 2.3509528e-38
32.634361 35.381348 0.1308378 2.3509528e-38
32.641621 35.391232 0.13235867 2.3509528e-38
32.652897 35.399567 0.13225067 2.3509528e-38
32.752316 35.377441 0.34580517 2.3509528e-38
32.764359 35.386719 0.46595764 2.3509528e-38
32.665699 35.404533 0.13053739 2.3509528e-38
32.67506 35.411545 0.13044715 2.3509528e-38
32.68737 35.418526 0.12953293 2.3509528e-38
32.697315 35.426064 0.12943614 2.3509528e-38
32.706131 35.435085 0.13014483 2.3509528e-38
32.71838 35.442173 0.12923002 2.3509528e-38
32.739449 35.416183 0.23826075 2.3509528e-38
32.724915 35.454151 0.13154984 2.3509528e-38
32.74715 35.426796 0.23968875 2.3509528e-38
32.75206 35.421974 0.35926795 2.3509528e-38
32.766365 35.404911 0.47059143 2.3509528e-38
32.735878 35.460346 0.13064682 2.3509528e-38
32.749161 35.444736 0.24493229 2.3509528e-38
32.75972 35.432644 0.36060905 2.3509528e-38
32.770596 35.420109 0.47387338 2.3509528e-38
32.748058 35.467533 0.1297313 2.3509528e-38
32.759132 35.454872 0.24558532 2.3509528e-38
32.766281 35.447239 0.36337709 2.3509528e-38
32.781788 35.428848 0.47376239 2.3509528e-38
32.757866 35.475243 0.12963367 2.3509528e-38
32.770119 35.461151 0.24472404 2.3509528e-38
32.778454 35.452057 0.36183941 2.3509528e-38
32.792873 35.435165 0.47298729 2.3509528e-38
32.769398 35.482021 0.12872386 2.3509528e-38
32.782848 35.466503 0.24309337 2.3509528e-38
32.791237 35.457405 0.36029518 2.3509528e-38
32.798737 35.449398 0.47558725 2.3509528e-38
32.782574 35.485485 0.12620795 2.3509528e-38
32.798401 35.46706 0.23917854 2.3509528e-38
32.78952 35.49807 0.12852168 2.3509528e-38
32.854572 35.241203 0.152156 2.3509528e-38
32.869888 35.398777 0.19861877 2.3509528e-38
32.900726 35.383953 0.43402314 2.3509528e-38
32.806873 35.457916 0.35659742 2.3509528e-38
32.814449 35.449867 0.4721067 2.3509528e-38
32.830124 35.45023 0.34857357 2.3509528e-38
32.83432 35.44648 0.46659029 2.3509528e-38
32.801533 35.503036 0.12681115 2.3509528e-38
32.814754 35.509026 0.12508821 2.3509528e-38
32.827904 35.512657 0.12257099 2.3509528e-38
32.842213 35.514912 0.11924744 2.3509528e-38
32.85421 35.52005 0.11753559 2.3509528e-38
32.863312 35.529968 0.11823606 2.3509528e-38
32.872375 35.539909 0.11893654 2.3509528e-38
32.880836 35.551781 0.12043703 2.3509528e-38
32.890388 35.557446 0.11954331 2.3509528e-38
32.901138 35.566563 0.11943078 2.3509528e-38
32.91423 35.572929 0.11770523 2.3509528e-38
32.927315 35.574512 0.11439145 2.3509528e-38
32.939201 35.582359 0.11347163 2.3509528e-38
32.952873 35.586964 0.11094463 2.3509528e-38
32.961739 35.597141 0.11164391 2.3509528e-38
