# .PCD v0.7 - Point Cloud Data file format
VERSION 0.7
FIELDS x y z rgb
SIZE 4 4 4 4
TYPE F F F F
COUNT 1 1 1 1
WIDTH 58
HEIGHT 1
VIEWPOINT 0 0 0 1 0 0 0
POINTS 58
DATA ascii
33.395424 41.410809 0.089906693 2.3509528e-38
33.389248 41.422535 0.088978052 2.3509528e-38
33.381996 41.432598 0.088922501 2.3509528e-38
33.372654 41.439354 0.090612888 2.3509528e-38
33.362011 41.447838 0.092293739 2.3509528e-38
33.380806 41.46217 0.19929063 2.3509528e-38
33.387005 41.467316 0.31179225 2.3509528e-38
33.39706 41.475273 0.42140007 2.3509528e-38
33.350758 41.454044 0.094851017 2.3509528e-38
33.362125 41.463013 0.20585883 2.3509528e-38
33.366707 41.466999 0.31880558 2.3509528e-38
33.390095 41.484764 0.42134821 2.3509528e-38
33.3424 41.462341 0.095669508 2.3509528e-38
33.344933 41.464848 0.2116003 2.3509528e-38
33.358284 41.475315 0.31953931 2.3509528e-38
33.366661 41.482113 0.42945647 2.3509528e-38
33.33604 41.473927 0.094742537 2.3509528e-38
33.338585 41.476452 0.21071565 2.3509528e-38
33.34306 41.480392 0.32340729 2.3509528e-38
33.363277 41.496017 0.42717338 2.3509528e-38
33.327194 41.482758 0.095558643 2.3509528e-38
33.332638 41.487453 0.20983434 2.3509528e-38
33.34301 41.495823 0.31942797 2.3509528e-38
33.358795 41.508224 0.42563558 2.3509528e-38
33.393242 41.534561 0.52128911 2.3509528e-38
33.324524 41.495304 0.092899561 2.3509528e-38
33.324181 41.495678 0.21061146 2.3509528e-38
33.335991 41.505165 0.31937742 2.3509528e-38
33.35471 41.519844 0.424101 2.3509528e-38
33.396603 41.551922 0.51634789 2.3509528e-38
33.313187 41.501339 0.095458508 2.3509528e-38
33.322968 41.509357 0.20725107 2.3509528e-38
33.324535 41.511162 0.32168269 2.3509528e-38
33.349106 41.530338 0.42330885 2.3509528e-38
33.310005 41.51445 0.092796564 2.3509528e-38
33.319809 41.52253 0.20471501 2.3509528e-38
33.330208 41.531052 0.31456327 2.3509528e-38
33.341541 41.540279 0.42325544 2.3509528e-38
33.306774 41.527561 0.090134859 2.3509528e-38
33.326729 41.543446 0.19638562 2.3509528e-38
33.348942 41.561054 0.30037713 2.3509528e-38
33.3428 41.556973 0.41875052 2.3509528e-38
33.303497 41.540676 0.087473154 2.3509528e-38
33.303017 41.556 0.083072424 2.3509528e-38
33.295822 41.565231 0.08302331 2.3509528e-38
33.292854 41.577778 0.080365181 2.3509528e-38
33.283726 41.586441 0.081183434 2.3509528e-38
33.273167 41.593956 0.082871914 2.3509528e-38
33.596581 41.602001 0.082678795 2.3509528e-38
33.516827 41.705414 0.082940817 2.3509528e-38
33.427883 41.638264 0.37195337 2.3509528e-38
33.527454 41.730347 0.072124958 2.3509528e-38
33.524078 41.743561 0.069589615 2.3509528e-38
33.512058 41.750046 0.072020769 2.3509528e-38
33.499546 41.757095 0.074449062 2.3509528e-38
33.497005 41.772011 0.071083307 2.3509528e-38
33.484447 41.778988 0.073512316 2.3509528e-38
33.477558 41.790478 0.072630644 2.3509528e-38
