# .PCD v0.7 - Point Cloud Data file format
VERSION 0.7
FIELDS x y z rgb
SIZE 4 4 4 4
TYPE F F F F
COUNT 1 1 1 1
WIDTH 228
HEIGHT 1
VIEWPOINT 0 0 0 1 0 0 0
POINTS 228
DATA ascii
33.597004 46.369942 0.079993963 9.1476764e-41
33.574184 46.385349 0.079028845 9.1476764e-41
33.575741 46.388699 0.27910805 9.1476764e-41
33.553562 46.388828 0.080457926 9.1476764e-41
33.529446 46.398224 0.080929518 9.1476764e-41
33.564411 46.411507 0.27563727 9.1476764e-41
33.546947 46.435024 0.27259851 9.1476764e-41
33.509094 46.412193 0.07996726 9.1476764e-41
33.534019 46.464947 0.26782835 9.1476764e-41
33.489635 46.421375 0.07996273 9.1476764e-41
33.527721 46.502464 0.26089358 9.1476764e-41
33.468235 46.439972 0.078044415 9.1476764e-41
33.511848 46.533607 0.25612402 9.1476764e-41
33.451965 46.456093 0.076127529 9.1476764e-41
33.504379 46.56937 0.24962354 9.1476764e-41
33.431087 46.465721 0.076124668 9.1476764e-41
33.414009 46.490623 0.072295189 9.1476764e-41
33.791428 46.280617 0.078174829 9.1476764e-41
33.76403 46.28389 0.08055234 9.1476764e-41
33.770996 46.2976 0.27789748 9.1476764e-41
33.74324 46.296776 0.080061674 9.1476764e-41
33.749283 46.308773 0.27788484 9.1476764e-41
33.794353 46.396854 0.45740664 9.1476764e-41
33.724083 46.306568 0.080050945 9.1476764e-41
33.730099 46.318581 0.27787435 9.1476764e-41
33.770485 46.398037 0.45933437 9.1476764e-41
33.699306 46.314789 0.080995798 9.1476764e-41
33.704399 46.325058 0.27916169 9.1476764e-41
33.672718 46.312962 0.084333897 9.1476764e-41
33.679504 46.326664 0.28131723 9.1476764e-41
33.651371 46.321472 0.084802866 9.1476764e-41
33.663349 46.345665 0.27914226 9.1476764e-41
33.636055 46.348595 0.080487728 9.1476764e-41
33.637611 46.35191 0.28043163 9.1476764e-41
33.617188 46.362225 0.079522848 9.1476764e-41
33.615303 46.358551 0.28128946 9.1476764e-41
33.600269 46.376781 0.27911651 9.1476764e-41
33.789474 46.435509 0.65293682 9.1476764e-41
33.789249 46.435276 0.85176539 9.1476764e-41
33.79409 46.444984 1.0477986 9.1476764e-41
33.763393 46.442116 0.65394974 9.1476764e-41
33.761379 46.438332 0.8532325 9.1476764e-41
33.774364 46.464413 1.2449056 9.1476764e-41
33.781326 46.478371 1.4394375 9.1476764e-41
33.787148 46.490082 1.634122 9.1476764e-41
33.79546 46.506714 1.8302034 9.1476764e-41
33.752499 46.420368 0.4569962 9.1476764e-41
33.737259 46.442047 0.65598953 9.1476764e-41
33.738789 46.445282 0.85381401 9.1476764e-41
33.747128 46.46207 1.0485257 9.1476764e-41
33.755276 46.478485 1.2444885 9.1476764e-41
33.765781 46.499599 1.4384843 9.1476764e-41
33.77248 46.513123 1.6333358 9.1476764e-41
33.781651 46.531578 1.8296802 9.1476764e-41
33.787861 46.544128 2.0252774 9.1476764e-41
33.718517 46.404533 0.46280122 9.1476764e-41
33.718189 46.455994 0.65529668 9.1476764e-41
33.721489 46.462788 0.85262108 9.1476764e-41
33.730679 46.481396 1.0472667 9.1476764e-41
33.738796 46.497856 1.2434618 9.1476764e-41
33.752819 46.526154 1.43706 9.1476764e-41
33.757713 46.536144 1.6325501 9.1476764e-41
33.770412 46.56179 1.8289651 9.1476764e-41
33.781948 46.585106 2.0249665 9.1476764e-41
33.702168 46.423683 0.46085322 9.1476764e-41
33.696457 46.471184 0.654603 9.1476764e-41
33.697994 46.474457 0.85261083 9.1476764e-41
33.70977 46.498425 1.0465068 9.1476764e-41
33.724907 46.52919 1.241214 9.1476764e-41
33.735329 46.550423 1.4359496 9.1476764e-41
33.741093 46.562233 1.6316531 9.1476764e-41
33.684006 46.445847 0.45851696 9.1476764e-41
33.679893 46.490337 0.65288615 9.1476764e-41
33.681438 46.493641 0.85112298 9.1476764e-41
33.696667 46.524796 1.0442495 9.1476764e-41
33.709988 46.552071 1.2397817 9.1476764e-41
33.725643 46.584091 1.433898 9.1476764e-41
33.673546 46.477257 0.45385611 9.1476764e-41
33.670612 46.52121 0.64877844 9.1476764e-41
33.673927 46.528152 0.8469733 9.1476764e-41
33.687378 46.555855 1.0412434 9.1476764e-41
33.703278 46.588585 1.2367232 9.1476764e-41
33.660809 46.500969 0.45074737 9.1476764e-41
33.654198 46.551094 0.6453526 9.1476764e-41
33.665283 46.574139 0.84134305 9.1476764e-41
33.642708 46.527214 0.4476372 9.1476764e-41
33.649372 46.588428 0.63987947 9.1476764e-41
33.646381 46.582081 0.43755114 9.1476764e-41
33.76347 46.607643 1.8277365 9.1476764e-41
33.784702 46.650726 2.024425 9.1476764e-41
33.734917 46.603127 1.62976 9.1476764e-41
33.76424 46.662979 1.8261248 9.1476764e-41
33.730247 46.643997 1.4294895 9.1476764e-41
33.740387 46.664925 1.6265378 9.1476764e-41
33.683018 46.610924 1.0352374 9.1476764e-41
33.704071 46.654564 1.230612 9.1476764e-41
33.724834 46.697613 1.4258657 9.1476764e-41
33.6656 46.622299 0.8348279 9.1476764e-41
33.69191 46.677135 1.027235 9.1476764e-41
33.653477 46.658566 0.62859607 9.1476764e-41
33.651226 46.653725 0.42436242 9.1476764e-41
33.646931 46.703556 0.41582704 9.1476764e-41
33.991013 46.244221 0.062996626 9.1476764e-41
33.960732 46.243118 0.066803455 9.1476764e-41
33.939514 46.25246 0.067265034 9.1476764e-41
33.912052 46.256279 0.069638491 9.1476764e-41
33.939728 46.307899 0.25849545 9.1476764e-41
33.893562 46.270618 0.06866622 9.1476764e-41
33.910046 46.301682 0.26281071 9.1476764e-41
33.879585 46.293484 0.065303564 9.1476764e-41
33.883183 46.300522 0.26582742 9.1476764e-41
33.849346 46.29192 0.069113731 9.1476764e-41
33.854713 46.302345 0.26841009 9.1476764e-41
33.824791 46.291672 0.071970701 9.1476764e-41
33.831009 46.303783 0.27056265 9.1476764e-41
33.880585 46.398552 0.44930661 9.1476764e-41
33.802063 46.301281 0.27401364 9.1476764e-41
33.851326 46.396126 0.45239401 9.1476764e-41
33.991512 46.455769 1.6306847 9.1476764e-41
33.989716 46.452965 2.025291 9.1476764e-41
33.994064 46.461365 2.2216713 9.1476764e-41
33.983025 46.441017 2.4188709 9.1476764e-41
33.978096 46.429039 0.43500757 9.1476764e-41
33.995335 46.512474 1.0286411 9.1476764e-41
33.980671 46.485168 1.2334065 9.1476764e-41
33.975826 46.476326 1.4326169 9.1476764e-41
33.969727 46.465126 1.6307803 9.1476764e-41
33.965237 46.456947 1.8292078 9.1476764e-41
33.964191 46.45525 2.0253642 9.1476764e-41
33.97134 46.468956 2.2215984 9.1476764e-41
33.962238 46.452106 2.4188557 9.1476764e-41
33.960983 46.447067 0.433442 9.1476764e-41
33.99041 46.55994 0.61780894 9.1476764e-41
33.968349 46.518417 0.82845855 9.1476764e-41
33.963352 46.509205 1.0308734 9.1476764e-41
33.953232 46.490551 1.4324433 9.1476764e-41
33.940651 46.466969 1.6314288 9.1476764e-41
33.935253 46.456997 1.82964 9.1476764e-41
33.937016 46.46059 2.0254185 9.1476764e-41
33.940392 46.467243 2.2213521 9.1476764e-41
33.932945 46.450817 0.43536365 9.1476764e-41
33.956841 46.544201 0.62292099 9.1476764e-41
33.931171 46.49551 0.83406639 9.1476764e-41
33.92799 46.489693 1.0351077 9.1476764e-41
33.929138 46.49213 1.2352073 9.1476764e-41
33.920631 46.476158 1.4346302 9.1476764e-41
33.913662 46.463116 1.6323023 9.1476764e-41
33.916641 46.469044 1.8295628 9.1476764e-41
33.910042 46.456703 2.0255468 9.1476764e-41
33.923618 46.482845 2.2214253 9.1476764e-41
33.910915 46.458866 2.4181466 9.1476764e-41
33.920753 46.529705 0.62803173 9.1476764e-41
33.891529 46.47382 0.8396734 9.1476764e-41
33.891979 46.474922 1.0388414 9.1476764e-41
33.884819 46.461411 1.2400743 9.1476764e-41
33.885525 46.463005 1.4368161 9.1476764e-41
33.884113 46.460529 1.6331748 9.1476764e-41
33.885227 46.462906 1.8301896 9.1476764e-41
33.886051 46.464725 2.025568 9.1476764e-41
33.897709 46.487358 2.2212961 9.1476764e-41
33.890625 46.47398 2.4182835 9.1476764e-41
33.863571 46.477226 0.64065957 9.1476764e-41
33.850746 46.452633 0.84528005 9.1476764e-41
33.852966 46.457153 1.0430747 9.1476764e-41
33.851292 46.454144 1.2422972 9.1476764e-41
33.859299 46.469868 1.4372733 9.1476764e-41
33.853313 46.458508 1.634047 9.1476764e-41
33.85717 46.466194 1.8304958 9.1476764e-41
33.860744 46.473343 2.025589 9.1476764e-41
33.874172 46.499561 2.2212815 9.1476764e-41
33.866215 46.484386 2.4181936 9.1476764e-41
33.827129 46.406464 0.45276725 9.1476764e-41
33.826946 46.460617 0.64611387 9.1476764e-41
33.815948 46.4394 0.84940946 9.1476764e-41
33.821743 46.450909 1.0455605 9.1476764e-41
33.822781 46.453156 1.2437081 9.1476764e-41
33.827095 46.461781 1.4389892 9.1476764e-41
33.832066 46.471687 1.6339234 9.1476764e-41
33.83408 46.47583 1.8305471 9.1476764e-41
33.838554 46.484764 2.0255761 9.1476764e-41
33.852821 46.512802 2.2212975 9.1476764e-41
33.84856 46.504711 2.4185581 9.1476764e-41
33.802334 46.461372 1.2439008 9.1476764e-41
33.807533 46.471779 1.4389784 9.1476764e-41
33.808857 46.474583 1.634356 9.1476764e-41
33.816307 46.489407 1.8304081 9.1476764e-41
33.820759 46.498352 2.0255301 9.1476764e-41
33.836773 46.529987 2.2214015 9.1476764e-41
33.835258 46.527222 2.4190757 9.1476764e-41
33.802597 46.521027 2.0254116 9.1476764e-41
33.81942 46.554497 2.2215903 9.1476764e-41
33.819717 46.555283 2.4197428 9.1476764e-41
33.805489 46.57943 2.2218096 9.1476764e-41
33.819237 46.606998 2.4214685 9.1476764e-41
33.807514 46.636555 2.2225466 9.1476764e-41
33.821175 46.664131 2.4234211 9.1476764e-41
33.820747 46.723763 2.2237422 9.1476764e-41
34.122269 46.485676 2.02455 9.1476764e-41
34.125729 46.492271 2.2230372 9.1476764e-41
34.120186 46.482525 2.4227939 9.1476764e-41
34.178436 46.584755 0.17929673 9.1476764e-41
34.10722 46.513504 1.6248635 9.1476764e-41
34.089241 46.48093 1.8267112 9.1476764e-41
34.124561 46.543041 0.19313478 9.1476764e-41
34.148315 46.586803 0.39164257 9.1476764e-41
34.082825 46.518421 1.4257529 9.1476764e-41
34.042862 46.443024 0.22126806 9.1476764e-41
34.068077 46.489754 0.41604698 9.1476764e-41
34.073055 46.556396 1.0191785 9.1476764e-41
34.030792 46.478565 1.4304482 9.1476764e-41
34.020851 46.460411 1.6297033 9.1476764e-41
34.017265 46.454037 1.8285339 9.1476764e-41
34.012413 46.445316 2.0252714 9.1476764e-41
34.019627 46.458984 2.2218308 9.1476764e-41
34.01421 46.449223 2.4197173 9.1476764e-41
34.01376 46.445518 0.42882109 9.1476764e-41
34.059456 46.581268 0.60895777 9.1476764e-41
34.044701 46.553997 0.81843197 9.1476764e-41
34.014725 46.498573 1.2305745 9.1476764e-41
34.00423 46.479252 1.431375 9.1476764e-41
34.03083 46.578671 0.6116755 9.1476764e-41
34.002197 46.525108 0.82522094 9.1476764e-41
34.144882 46.631477 0.59430134 9.1476764e-41
34.100281 46.606316 0.60179889 9.1476764e-41
34.216305 46.606216 0.17108572 9.1476764e-41
34.248142 46.663998 0.36880994 9.1476764e-41
34.220592 46.661945 0.58340645 9.1476764e-41
34.210041 46.64246 0.3761574 9.1476764e-41
