# .PCD v0.7 - Point Cloud Data file format
VERSION 0.7
FIELDS x y z rgb
SIZE 4 4 4 4
TYPE F F F F
COUNT 1 1 1 1
WIDTH 47
HEIGHT 1
VIEWPOINT 0 0 0 1 0 0 0
POINTS 47
DATA ascii
44.389717 36.47271 2.068805 2.3509528e-38
44.365299 36.51498 1.3885918 2.3509528e-38
44.35659 36.519463 1.7302577 2.3509528e-38
44.34985 36.523579 2.068536 2.3509528e-38
44.374786 36.522228 2.4071162 2.3509528e-38
44.344597 36.559803 1.3896074 2.3509528e-38
44.343742 36.562916 1.7304161 2.3509528e-38
44.331074 36.568008 2.0682435 2.3509528e-38
44.350113 36.567722 2.4060936 2.3509528e-38
44.331215 36.60067 1.3902562 2.3509528e-38
44.326401 36.604435 1.7306991 2.3509528e-38
44.32753 36.607182 2.0679388 2.3509528e-38
44.332767 36.609241 2.4052622 2.3509528e-38
44.322895 36.6483 1.3906453 2.3509528e-38
44.325954 36.650749 1.7305111 2.3509528e-38
44.319183 36.654789 2.0675831 2.3509528e-38
44.338242 36.654598 2.4048285 2.3509528e-38
44.320335 36.694901 1.3907429 2.3509528e-38
44.33128 36.696087 1.7301711 2.3509528e-38
44.324505 36.7001 2.0671968 2.3509528e-38
44.351471 36.6987 2.4045632 2.3509528e-38
44.331829 36.728966 1.390146 2.3509528e-38
44.334885 36.731426 1.7299182 2.3509528e-38
44.341934 36.733234 2.0668659 2.3509528e-38
44.362984 36.732834 2.4043846 2.3509528e-38
44.350716 36.772167 1.3891692 2.3509528e-38
44.355762 36.77433 1.7291708 2.3509528e-38
44.36282 36.776157 2.066443 2.3509528e-38
44.372017 36.777657 2.4040353 2.3509528e-38
44.368713 36.810452 1.3882353 2.3509528e-38
44.38168 36.811424 1.7283128 2.3509528e-38
44.382812 36.814171 2.0660634 2.3509528e-38
44.446686 36.412514 1.3845644 2.3509528e-38
44.447914 36.415298 1.728267 2.3509528e-38
44.470047 36.417305 2.410224 2.3509528e-38
44.403873 36.813896 2.4042308 2.3509528e-38
44.402416 36.846455 1.3865184 2.3509528e-38
44.419365 36.84687 1.7271476 2.3509528e-38
44.422489 36.849327 2.0656359 2.3509528e-38
44.439594 36.849705 2.4045088 2.3509528e-38
44.448624 36.885933 1.3841691 2.3509528e-38
44.463634 36.886692 1.7257839 2.3509528e-38
44.474689 36.888004 2.0651352 2.3509528e-38
44.50367 36.886711 2.4053252 2.3509528e-38
44.510544 36.92342 1.3810344 2.3509528e-38
44.549362 36.92083 1.7233427 2.3509528e-38
44.548569 36.923882 2.0645792 2.3509528e-38
