# .PCD v0.7 - Point Cloud Data file format
VERSION 0.7
FIELDS x y z rgb
SIZE 4 4 4 4
TYPE F F F F
COUNT 1 1 1 1
WIDTH 44
HEIGHT 1
VIEWPOINT 0 0 0 1 0 0 0
POINTS 44
DATA ascii
16.755123 53.697926 0.18190122 2.3509886e-38
16.758373 53.699905 0.64456868 2.3509886e-38
16.772848 53.689404 1.1064696 2.3509886e-38
16.798481 53.666527 1.5703793 2.3509886e-38
16.684681 53.693352 0.17810392 2.3509886e-38
16.657084 53.729408 0.63841498 2.3509886e-38
16.985184 53.798027 1.1076221 2.3509886e-38
16.902494 53.792015 0.18321097 2.3509886e-38
16.928234 53.768551 0.64772773 2.3509886e-38
16.969109 53.727943 1.1102043 2.3509886e-38
16.867887 53.742706 0.18503523 2.3509886e-38
16.884441 53.729717 0.64819968 2.3509886e-38
16.914822 53.70116 1.1098709 2.3509886e-38
16.962931 53.652683 1.5726863 2.3509886e-38
16.986307 53.631927 2.0281842 2.3509886e-38
16.813446 53.720825 0.18355 2.3509886e-38
16.830021 53.707909 0.64717638 2.3509886e-38
16.861809 53.677971 1.1094105 2.3509886e-38
16.894058 53.647514 1.5720005 2.3509886e-38
16.912165 53.632801 2.0284433 2.3509886e-38
16.935986 53.611679 2.4835711 2.3509886e-38
16.983103 53.967796 0.63796377 2.3509886e-38
16.929008 53.929298 0.17401445 2.3509886e-38
16.961067 53.898331 0.64125657 2.3509886e-38
16.924126 53.856194 0.1794548 2.3509886e-38
16.948429 53.834206 0.64461195 2.3509886e-38
17.104017 53.751717 2.0267911 2.3509886e-38
17.124914 53.733356 2.4811177 2.3509886e-38
17.03561 53.746292 1.5711563 2.3509886e-38
17.070723 53.711895 2.0272331 2.3509886e-38
17.096954 53.68758 2.4812176 2.3509886e-38
17.009125 53.688301 1.5723248 2.3509886e-38
17.033752 53.665981 2.0277379 2.3509886e-38
17.052118 53.650726 2.4817238 2.3509886e-38
17.00606 53.615231 2.4822695 2.3509886e-38
17.049812 53.991985 1.5650294 2.3509886e-38
17.118559 53.918007 2.0253916 2.3509886e-38
17.151112 53.88591 2.4820626 2.3509886e-38
17.020874 53.93 1.1028843 2.3509886e-38
17.082748 53.864464 1.5686834 2.3509886e-38
17.118946 53.828392 2.0261161 2.3509886e-38
17.141098 53.80846 2.481519 2.3509886e-38
17.004261 53.854588 1.105698 2.3509886e-38
17.055845 53.801247 1.5699885 2.3509886e-38
