# .PCD v0.7 - Point Cloud Data file format
VERSION 0.7
FIELDS x y z rgb
SIZE 4 4 4 4
TYPE F F F F
COUNT 1 1 1 1
WIDTH 241
HEIGHT 1
VIEWPOINT 0 0 0 1 0 0 0
POINTS 241
DATA ascii
48.444252 36.465519 1.185955 2.3509886e-38
48.417583 36.521572 1.1871805 2.3509886e-38
48.40757 36.534054 2.4850614 2.3509886e-38
48.414932 36.577538 1.1872025 2.3509886e-38
48.526691 36.566589 1.6193161 2.3509886e-38
48.408867 36.589455 2.4844685 2.3509886e-38
48.422016 36.632195 1.1867342 2.3509886e-38
48.521919 36.6231 1.619154 2.3509886e-38
48.522514 36.626736 2.052717 2.3509886e-38
48.41198 36.644588 2.4839177 2.3509886e-38
48.441231 36.688599 1.1856492 2.3509886e-38
48.523926 36.68568 2.0522344 2.3509886e-38
48.423264 36.701939 2.4835055 2.3509886e-38
48.441647 36.740841 1.185504 2.3509886e-38
48.553535 36.730873 1.6177495 2.3509886e-38
48.526344 36.7379 2.0518026 2.3509886e-38
48.429619 36.753391 2.4830658 2.3509886e-38
48.44191 36.793068 1.1853595 2.3509886e-38
48.553833 36.783409 1.617462 2.3509886e-38
48.534576 36.789406 2.0513558 2.3509886e-38
48.425903 36.806042 2.4824204 2.3509886e-38
48.450714 36.850792 1.184767 2.3509886e-38
48.564667 36.841248 1.6168617 2.3509886e-38
48.539436 36.847874 2.0508647 2.3509886e-38
48.438675 36.863239 2.4820504 2.3509886e-38
48.453911 36.896114 1.1844815 2.3509886e-38
48.571861 36.886395 1.6164237 2.3509886e-38
48.540665 36.893631 2.0504894 2.3509886e-38
48.439873 36.908745 2.4815845 2.3509886e-38
48.452461 36.954987 1.1843824 2.3509886e-38
48.576408 36.944973 1.6159792 2.3509886e-38
48.553154 36.951225 2.049978 2.3509886e-38
48.446362 36.966682 2.481092 2.3509886e-38
48.460411 37.009541 1.1838188 2.3509886e-38
48.576447 37.000744 1.6156664 2.3509886e-38
48.555176 37.00671 2.0495212 2.3509886e-38
48.448345 37.021843 2.480545 2.3509886e-38
48.475471 37.056839 1.1829156 2.3509886e-38
48.589561 37.04855 1.6150464 2.3509886e-38
48.554359 37.055916 2.0491254 2.3509886e-38
48.45546 37.069931 2.4801764 2.3509886e-38
48.481461 37.114899 1.1824236 2.3509886e-38
48.589622 37.107571 1.6147072 2.3509886e-38
48.566345 37.113609 2.048615 2.3509886e-38
48.45945 37.128117 2.4796443 2.3509886e-38
48.492599 37.165932 1.1816907 2.3509886e-38
48.592834 37.159691 1.6143198 2.3509886e-38
48.565567 37.166054 2.048193 2.3509886e-38
48.460632 37.180058 2.4791262 2.3509886e-38
48.493652 37.217968 1.1814517 2.3509886e-38
48.589928 37.212387 1.614089 2.3509886e-38
48.570614 37.217903 2.0477548 2.3509886e-38
48.467644 37.231422 2.4787314 2.3509886e-38
48.491177 37.276825 1.1813564 2.3509886e-38
48.597431 37.270615 1.613544 2.3509886e-38
48.572136 37.276619 2.0472736 2.3509886e-38
48.475109 37.289257 2.4782825 2.3509886e-38
48.567207 37.332626 2.0468376 2.3509886e-38
48.48011 37.344074 2.4778204 2.3509886e-38
48.585457 37.380024 2.0463881 2.3509886e-38
48.482399 37.392628 2.4773724 2.3509886e-38
48.483112 37.447803 2.47683 2.3509886e-38
48.489899 37.505711 2.4763827 2.3509886e-38
48.493759 37.554115 2.4759767 2.3509886e-38
48.500214 37.612068 2.4755306 2.3509886e-38
48.510471 37.669758 2.4751656 2.3509886e-38
48.509911 37.718491 2.4746799 2.3509886e-38
48.51181 37.762726 1.1781842 2.3509886e-38
48.511642 37.773544 2.4741812 2.3509886e-38
48.503418 37.818428 1.1783221 2.3509886e-38
48.529175 37.827583 2.4740055 2.3509886e-38
48.498455 37.867367 1.178316 2.3509886e-38
48.526203 37.876457 2.4734809 2.3509886e-38
48.503708 37.92215 1.1777601 2.3509886e-38
48.537453 37.930962 2.4731846 2.3509886e-38
48.586754 37.975899 1.1732996 2.3509886e-38
48.538727 37.989307 2.472661 2.3509886e-38
48.599327 38.024044 1.1723986 2.3509886e-38
48.549309 38.037426 2.4724188 2.3509886e-38
48.544258 38.096085 2.471776 2.3509886e-38
48.556858 38.15065 2.4715207 2.3509886e-38
48.559025 38.199226 2.4711194 2.3509886e-38
48.569321 38.253971 2.4708247 2.3509886e-38
48.565044 38.308994 2.0389349 2.3509886e-38
48.56559 38.312527 2.4702244 2.3509886e-38
48.569443 38.3643 2.4698374 2.3509886e-38
48.584705 38.415428 2.038002 2.3509886e-38
48.581245 38.419083 2.4695833 2.3509886e-38
48.580265 38.467499 2.0375962 2.3509886e-38
48.588802 38.470795 2.4692764 2.3509886e-38
48.590218 38.522701 2.4688509 2.3509886e-38
48.589634 38.581146 2.468333 2.3509886e-38
48.619476 37.429062 1.6119955 2.3509886e-38
48.600143 37.434334 2.0458953 2.3509886e-38
48.600983 37.493095 2.0454161 2.3509886e-38
48.630184 37.536175 1.6110427 2.3509886e-38
48.610844 37.541328 2.0449901 2.3509886e-38
48.630692 37.595016 1.610657 2.3509886e-38
48.613338 37.599953 2.0445061 2.3509886e-38
48.640984 37.653122 1.6100099 2.3509886e-38
48.625622 37.657856 2.0439928 2.3509886e-38
48.650421 37.701515 1.6094447 2.3509886e-38
48.627075 37.70676 2.0435915 2.3509886e-38
48.666145 37.756062 1.6086679 2.3509886e-38
48.644798 37.761105 2.0430875 2.3509886e-38
48.667747 37.811581 1.6082587 2.3509886e-38
48.646393 37.816555 2.0426326 2.3509886e-38
48.672779 37.86034 1.6077992 2.3509886e-38
48.645435 37.865616 2.0422385 2.3509886e-38
48.680061 37.91552 1.6072332 2.3509886e-38
48.64872 37.92094 2.0417783 2.3509886e-38
48.683361 37.974213 1.6067457 2.3509886e-38
48.654011 37.979424 2.0412855 2.3509886e-38
48.683975 38.023235 1.6063929 2.3509886e-38
48.660614 38.028053 2.040868 2.3509886e-38
48.690933 38.081745 1.605801 2.3509886e-38
48.66357 38.086681 2.0403824 2.3509886e-38
48.689568 38.137394 1.6054478 2.3509886e-38
48.678185 38.141506 2.0398858 2.3509886e-38
48.695747 38.186153 1.6049378 2.3509886e-38
48.676369 38.190582 2.0394945 2.3509886e-38
48.682087 38.242279 1.6049035 2.3509886e-38
48.678688 38.245998 2.0390372 2.3509886e-38
48.608444 38.303818 1.6064334 2.3509886e-38
48.632278 38.35503 1.6054223 2.3509886e-38
48.616871 38.359119 2.0383427 2.3509886e-38
48.626106 38.410572 1.6051801 2.3509886e-38
48.629669 38.462532 1.6046999 2.3509886e-38
48.671059 38.513519 1.6032097 2.3509886e-38
48.629662 38.518143 2.0370085 2.3509886e-38
48.649677 38.56913 1.166404 2.3509886e-38
48.648853 38.624512 1.1660514 2.3509886e-38
48.727627 38.626511 1.6008377 2.3509886e-38
48.708241 38.630451 2.0358164 2.3509886e-38
48.6008 38.636101 2.4680798 2.3509886e-38
48.673775 38.676182 1.1644254 2.3509886e-38
48.734581 38.678711 1.6002506 2.3509886e-38
48.721199 38.682487 2.0353482 2.3509886e-38
48.601753 38.688042 2.4676557 2.3509886e-38
48.741486 38.737488 1.5996103 2.3509886e-38
48.7201 38.741333 2.0348754 2.3509886e-38
48.604649 38.746449 2.4672184 2.3509886e-38
48.647324 38.784081 1.1649506 2.3509886e-38
48.746094 38.78651 1.5991038 2.3509886e-38
48.72271 38.790318 2.0344691 2.3509886e-38
48.609253 38.795105 2.4669006 2.3509886e-38
48.629852 38.836319 1.1654286 2.3509886e-38
48.748604 38.838848 1.5986243 2.3509886e-38
48.73922 38.842464 2.0339875 2.3509886e-38
48.61776 38.847 2.4666352 2.3509886e-38
48.672199 38.894619 1.1628476 2.3509886e-38
48.751007 38.897739 1.5980921 2.3509886e-38
48.739624 38.901337 2.033509 2.3509886e-38
48.61816 38.905487 2.4661601 2.3509886e-38
48.682396 38.950001 1.1618965 2.3509886e-38
48.755211 38.953369 1.5975335 2.3509886e-38
48.743832 38.956928 2.0330436 2.3509886e-38
48.626366 38.960705 2.4658687 2.3509886e-38
48.694427 38.998917 1.160898 2.3509886e-38
48.757259 39.002472 1.5970819 2.3509886e-38
48.747879 39.006001 2.0326314 2.3509886e-38
48.630409 39.009464 2.4655521 2.3509886e-38
48.716301 39.054459 1.1593444 2.3509886e-38
48.763153 39.058151 1.5964704 2.3509886e-38
48.765778 39.061684 2.0321159 2.3509886e-38
48.640308 39.06477 2.4653006 2.3509886e-38
48.773491 39.120686 2.0316103 2.3509886e-38
48.640022 39.123325 2.4648273 2.3509886e-38
48.707642 39.162201 1.1588753 2.3509886e-38
48.773109 39.169834 2.0312135 2.3509886e-38
48.647644 39.172192 2.4645896 2.3509886e-38
48.707016 39.220978 1.1584014 2.3509886e-38
48.799843 39.225624 1.5940998 2.3509886e-38
48.760479 39.228661 2.0307822 2.3509886e-38
48.649017 39.230793 2.4641564 2.3509886e-38
48.700211 39.279667 1.1582298 2.3509886e-38
48.787033 39.284508 1.5939472 2.3509886e-38
48.767666 39.28772 2.030278 2.3509886e-38
48.660206 39.289558 2.4639187 2.3509886e-38
48.707443 39.325504 1.1574597 2.3509886e-38
48.798264 39.330624 1.5932547 2.3509886e-38
48.780903 39.333824 2.0298569 2.3509886e-38
48.663448 39.33522 2.46363 2.3509886e-38
48.720284 39.384571 1.1562831 2.3509886e-38
48.775761 39.392738 2.029398 2.3509886e-38
48.668312 39.39397 2.4632757 2.3509886e-38
48.725029 39.440262 1.1555352 2.3509886e-38
48.792507 39.448875 2.028883 2.3509886e-38
48.673065 39.449497 2.4629478 2.3509886e-38
48.717804 39.489132 1.1554449 2.3509886e-38
48.787266 39.497963 2.0285041 2.3509886e-38
48.685825 39.498749 2.4628282 2.3509886e-38
48.724232 39.544907 1.1545972 2.3509886e-38
48.7957 39.553997 2.0280199 2.3509886e-38
48.690269 39.554363 2.4625008 2.3509886e-38
48.726395 39.603863 1.1539254 2.3509886e-38
48.686443 39.613003 2.4619932 2.3509886e-38
48.742699 39.653522 1.1526259 2.3509886e-38
48.698772 39.662415 2.4618735 2.3509886e-38
48.740528 39.71241 1.1521566 2.3509886e-38
48.700603 39.721302 2.4614825 2.3509886e-38
48.738579 39.761475 1.1517661 2.3509886e-38
48.710648 39.770744 2.4613245 2.3509886e-38
48.754173 39.81786 1.1504148 2.3509886e-38
48.708286 39.826252 2.4608834 2.3509886e-38
48.78756 39.875183 1.1481533 2.3509886e-38
48.709755 39.881939 2.4605198 2.3509886e-38
48.722878 39.941509 2.4603612 2.3509886e-38
48.716362 39.990307 2.4598966 2.3509886e-38
48.737312 40.047169 2.4599178 2.3509886e-38
48.753899 40.107201 2.459836 2.3509886e-38
48.760925 40.156902 2.4596403 2.3509886e-38
48.771172 40.216736 2.4594436 2.3509886e-38
48.75552 40.271606 2.4587767 2.3509886e-38
48.76786 40.3251 2.4586704 2.3509886e-38
48.785789 40.382385 2.4586525 2.3509886e-38
48.815857 39.44593 1.5917931 2.3509886e-38
48.818611 39.495296 1.5912905 2.3509886e-38
48.817047 39.551132 1.5908437 2.3509886e-38
48.823204 39.610508 1.5901549 2.3509886e-38
48.801861 39.613304 2.0275173 2.3509886e-38
48.829521 39.660069 1.5895449 2.3509886e-38
48.806187 39.662735 2.0271013 2.3509886e-38
48.83733 39.719604 1.5888023 2.3509886e-38
48.812004 39.722118 2.0265994 2.3509886e-38
48.855347 39.769737 1.5878673 2.3509886e-38
48.822037 39.771854 2.0261602 2.3509886e-38
48.854965 39.825768 1.5873682 2.3509886e-38
48.83165 39.828224 2.0256691 2.3509886e-38
48.864403 39.882271 1.5865982 2.3509886e-38
48.841095 39.884655 2.025178 2.3509886e-38
48.800652 39.935005 1.1468763 2.3509886e-38
48.871506 39.942032 1.5858562 2.3509886e-38
48.844212 39.944141 2.0246849 2.3509886e-38
48.868965 39.99144 1.5854651 2.3509886e-38
48.845669 39.993683 2.0242782 2.3509886e-38
48.871918 40.047756 1.5848589 2.3509886e-38
48.856613 40.050369 2.0237796 2.3509886e-38
48.886482 40.108097 1.5839 2.3509886e-38
48.865196 40.11031 2.0232632 2.3509886e-38
48.866219 40.159939 2.0228574 2.3509886e-38
