# .PCD v0.7 - Point Cloud Data file format
VERSION 0.7
FIELDS x y z rgb
SIZE 4 4 4 4
TYPE F F F F
COUNT 1 1 1 1
WIDTH 138
HEIGHT 1
VIEWPOINT 0 0 0 1 0 0 0
POINTS 138
DATA ascii
33.280975 25.22471 0.21151853 1.2472041e-38
33.288254 25.363068 0.22902143 1.2472041e-38
33.301617 25.315281 0.55402482 1.2472041e-38
33.293373 25.507133 0.24732077 1.2472041e-38
33.288204 25.689613 0.270913 1.2472041e-38
33.295868 25.665916 0.59116209 1.2472041e-38
33.368382 25.713831 0.27098572 1.2472041e-38
33.369362 25.717163 0.59420002 1.2472041e-38
33.350941 25.92627 0.29883301 1.2472041e-38
33.35125 25.932095 0.61738086 1.2472041e-38
33.376503 25.996363 0.30680251 1.2472041e-38
33.37825 25.99658 0.6232661 1.2472041e-38
33.369892 26.187273 0.3314451 1.2472041e-38
33.376549 26.16877 0.6413914 1.2472041e-38
33.205853 26.348015 0.04897213 1.2472041e-38
33.234016 26.37561 0.051889896 1.2472041e-38
33.272118 26.391592 0.052596569 1.2472041e-38
33.386902 26.249207 0.33867621 1.2472041e-38
33.387436 26.253925 0.64995468 1.2472041e-38
33.311661 26.401955 0.052370548 1.2472041e-38
33.342392 26.410103 0.052194118 1.2472041e-38
33.380333 26.426411 0.052898645 1.2472041e-38
33.384159 26.418823 0.36041558 1.2472041e-38
33.384544 26.423981 0.66786909 1.2472041e-38
33.399563 26.509274 0.37131834 1.2472041e-38
33.214924 30.476597 0.0021584034 1.2472041e-38
33.24292 30.478909 0.00019431114 1.2472041e-38
33.267441 30.490408 0.00047445297 1.2472041e-38
33.291988 30.506191 0.0016417503 1.2472041e-38
33.312691 30.514278 0.001502037 1.2472041e-38
33.34071 30.521122 0.00042366982 1.2472041e-38
33.381969 30.420269 0.19959414 1.2472041e-38
33.388439 30.407688 0.41917014 1.2472041e-38
33.362919 30.53834 0.0020489693 1.2472041e-38
33.384926 30.48679 0.21193552 1.2472041e-38
33.397148 30.459848 0.42723334 1.2472041e-38
33.386486 30.547783 0.0018877983 1.2472041e-38
33.399307 30.591816 0.23057747 1.2472041e-38
33.367256 30.67477 0.46522355 1.2472041e-38
33.392323 30.757364 0.69156623 1.2472041e-38
33.394669 30.744423 0.25971401 1.2472041e-38
33.380474 30.850822 0.70576727 1.2472041e-38
33.346207 30.929901 0.5091517 1.2472041e-38
33.391644 30.891882 0.71090674 1.2472041e-38
33.367817 31.000673 0.31013012 1.2472041e-38
33.362129 31.017654 0.52245569 1.2472041e-38
33.33017 31.223104 0.35503733 1.2472041e-38
33.335777 31.269999 0.1585387 1.2472041e-38
33.340698 31.265305 0.56496429 1.2472041e-38
33.32666 31.342537 0.17458463 1.2472041e-38
33.347916 31.296957 0.36726642 1.2472041e-38
33.355633 31.282526 0.56662297 1.2472041e-38
33.325378 31.41432 0.1896863 1.2472041e-38
33.299442 31.47674 0.40507281 1.2472041e-38
33.3367 31.502485 0.20691574 1.2472041e-38
33.356831 31.463726 0.59625733 1.2472041e-38
33.364182 31.504135 0.20449793 1.2472041e-38
33.38937 31.500555 0.20120859 1.2472041e-38
33.378769 31.527214 0.40728986 1.2472041e-38
33.418613 26.432705 0.052061558 1.2472041e-38
33.403 26.503147 0.67552471 1.2472041e-38
33.458454 26.433401 0.050291538 1.2472041e-38
33.490768 26.44442 0.050410509 1.2472041e-38
33.527466 26.464981 0.051733494 1.2472041e-38
33.564007 26.460974 0.049364805 1.2472041e-38
33.439003 26.785625 0.40484583 1.2472041e-38
33.437435 26.797428 0.70507562 1.2472041e-38
33.424297 26.958672 0.4274354 1.2472041e-38
33.438286 27.058167 0.73223126 1.2472041e-38
33.439388 27.187923 0.45586467 1.2472041e-38
33.449059 27.160656 0.74251318 1.2472041e-38
33.477554 27.300457 0.46845543 1.2472041e-38
33.442856 27.411404 0.19741738 1.2472041e-38
33.44733 27.513805 0.21246016 1.2472041e-38
33.461143 27.473511 0.49105096 1.2472041e-38
33.458141 27.593449 0.22377348 1.2472041e-38
33.466812 27.570499 0.50304949 1.2472041e-38
33.480927 27.639671 0.229478 1.2472041e-38
33.501984 27.801365 0.25241148 1.2472041e-38
33.495274 27.828266 0.5342617 1.2472041e-38
33.484276 27.984852 0.55446601 1.2472041e-38
33.523075 28.069336 0.29102051 1.2472041e-38
33.510384 28.113941 0.569471 1.2472041e-38
33.479607 28.312801 0.32941151 1.2472041e-38
33.484303 28.303482 0.59447312 1.2472041e-38
33.525455 28.379929 0.3368094 1.2472041e-38
33.502666 28.453564 0.61239779 1.2472041e-38
33.501644 28.55529 0.36400843 1.2472041e-38
33.420746 28.690407 0.12708402 1.2472041e-38
33.453148 28.695024 0.12581909 1.2472041e-38
33.51284 28.629984 0.37438762 1.2472041e-38
33.524319 28.600977 0.62977564 1.2472041e-38
33.489239 28.694763 0.12346959 1.2472041e-38
33.537388 28.646709 0.3754611 1.2472041e-38
33.529057 28.675903 0.6388942 1.2472041e-38
33.5168 28.702089 0.1229409 1.2472041e-38
33.563538 28.670341 0.37744546 1.2472041e-38
33.544724 28.720032 0.12417674 1.2472041e-38
33.507252 28.838215 0.66020429 1.2472041e-38
33.531563 28.866295 0.40807366 1.2472041e-38
33.509754 28.933529 0.67194915 1.2472041e-38
33.491505 28.97653 0.17117167 1.2472041e-38
33.486507 29.089241 0.69248295 1.2472041e-38
33.456146 29.166412 0.2056812 1.2472041e-38
33.491592 29.162544 0.70133495 1.2472041e-38
33.460533 29.241034 0.21802211 1.2472041e-38
33.479633 29.293003 0.71813583 1.2472041e-38
33.466579 29.320517 0.23105836 1.2472041e-38
33.487823 29.344425 0.72409189 1.2472041e-38
33.420547 29.444603 0.010667801 1.2472041e-38
33.44318 29.454853 0.010919571 1.2472041e-38
33.486538 29.437651 0.4943974 1.2472041e-38
33.473766 29.463898 0.010320425 1.2472041e-38
33.494892 29.41032 0.2443012 1.2472041e-38
33.501316 29.476109 0.010538578 1.2472041e-38
33.527168 29.48778 0.010767221 1.2472041e-38
33.554642 29.500143 0.010984182 1.2472041e-38
33.581108 29.510128 0.010808229 1.2472041e-38
33.447208 29.62759 0.28418767 1.2472041e-38
33.446636 29.709221 0.29797077 1.2472041e-38
33.486588 29.690496 0.53125942 1.2472041e-38
33.413433 29.881676 0.32928097 1.2472041e-38
33.450409 29.864767 0.55883598 1.2472041e-38
33.443398 29.960365 0.34038615 1.2472041e-38
33.40451 30.141457 0.37349808 1.2472041e-38
33.420891 30.181564 0.37903953 1.2472041e-38
33.428787 30.224789 0.38569701 1.2472041e-38
33.413078 30.492771 0.65213096 1.2472041e-38
33.406456 30.501747 0.21298456 1.2472041e-38
33.426071 30.4566 0.42456365 1.2472041e-38
33.410038 30.561504 0.0026144981 1.2472041e-38
33.437214 30.570478 0.0019826889 1.2472041e-38
33.459209 30.583733 0.0027186871 1.2472041e-38
33.484142 30.589848 0.001657486 1.2472041e-38
33.404541 30.724047 0.47061574 1.2472041e-38
33.505272 30.609234 0.0037300587 1.2472041e-38
33.530205 30.611275 0.0017795563 1.2472041e-38
33.554966 30.626019 0.0024933815 1.2472041e-38
