# .PCD v0.7 - Point Cloud Data file format
VERSION 0.7
FIELDS x y z rgb
SIZE 4 4 4 4
TYPE F F F F
COUNT 1 1 1 1
WIDTH 1065
HEIGHT 1
VIEWPOINT 0 0 0 1 0 0 0
POINTS 1065
DATA ascii
23.790756 35.599625 0.12383139 2.3418409e-38
23.691896 35.54768 0.44948816 2.3418409e-38
23.689295 35.548393 0.79710972 2.3418409e-38
23.693764 35.526154 0.96920812 2.3418409e-38
23.704763 35.527927 0.27204204 2.3418409e-38
23.704437 35.528839 0.45005679 2.3418409e-38
23.69788 35.526295 0.62339365 2.3418409e-38
23.69669 35.526703 0.79651833 2.3418409e-38
23.68903 35.502003 0.96682668 2.3418409e-38
23.698582 35.50301 0.26770735 2.3418409e-38
23.693056 35.501038 0.44478941 2.3418409e-38
23.691544 35.50127 0.61987662 2.3418409e-38
23.690285 35.501637 0.79341149 2.3418409e-38
23.68388 35.47464 0.96414864 2.3418409e-38
23.695404 35.476784 0.26387906 2.3418409e-38
23.689812 35.474754 0.44132483 2.3418409e-38
23.693363 35.47781 0.61798096 2.3418409e-38
23.695505 35.480068 0.79245663 2.3418409e-38
23.680561 35.448181 0.96178102 2.3418409e-38
23.64323 35.428253 1.1279659 2.3418409e-38
23.697395 35.453362 0.26152909 2.3418409e-38
23.690063 35.450329 0.43875504 2.3418409e-38
23.691853 35.452408 0.61528122 2.3418409e-38
23.690506 35.452713 0.78936338 2.3418409e-38
23.681406 35.42252 0.96004033 2.3418409e-38
23.689972 35.423088 0.25622928 2.3418409e-38
23.687637 35.422855 0.43529737 2.3418409e-38
23.689352 35.424896 0.61218643 2.3418409e-38
23.681099 35.421284 0.78520775 2.3418409e-38
23.670418 35.795959 0.8136878 2.3418409e-38
23.673344 35.748329 0.29012346 2.3418409e-38
23.68726 35.75658 0.46994686 2.3418409e-38
23.700176 35.764297 0.64557588 2.3418409e-38
23.667633 35.723511 0.80761898 2.3418409e-38
23.645409 35.687767 0.97358465 2.3418409e-38
23.605316 35.640087 0.082822323 2.3418409e-38
23.625481 35.626556 0.086167097 2.3418409e-38
23.667767 35.624897 0.096503258 2.3418409e-38
23.693558 35.617455 0.10198367 2.3418409e-38
23.727301 35.611595 0.10962844 2.3418409e-38
23.754847 35.601139 0.11512697 2.3418409e-38
23.706408 35.995102 1.0023283 2.3418409e-38
23.712248 35.978729 1.1675169 2.3418409e-38
23.683336 35.959427 0.3152231 2.3418409e-38
23.678991 35.825924 1.1552349 2.3418409e-38
23.702478 35.832344 0.30605352 2.3418409e-38
23.701107 35.832756 0.48034739 2.3418409e-38
23.702042 35.834305 0.65207136 2.3418409e-38
23.691366 35.804409 0.47553933 2.3418409e-38
23.695696 35.807682 0.64856708 2.3418409e-38
23.660769 36.064804 1.1656127 2.3418409e-38
23.70573 36.080215 0.33290529 2.3418409e-38
23.703136 36.08012 0.50415945 2.3418409e-38
23.724134 36.090942 0.67777395 2.3418409e-38
23.738316 36.098587 0.84728324 2.3418409e-38
23.706104 36.041981 1.0051922 2.3418409e-38
23.724016 36.390495 0.026896238 2.3418409e-38
23.730825 36.374096 0.027004957 2.3418409e-38
23.742577 36.355927 0.028301477 2.3418409e-38
23.790051 36.377106 0.21401167 2.3418409e-38
23.74688 36.335896 0.027256727 2.3418409e-38
23.792498 36.356449 0.21251631 2.3418409e-38
23.726715 36.329552 0.36221445 2.3418409e-38
23.751614 36.341259 0.53737724 2.3418409e-38
23.75378 36.343266 0.70306873 2.3418409e-38
23.765078 36.349148 0.86885762 2.3418409e-38
23.752312 36.325481 1.0286697 2.3418409e-38
23.75383 36.319553 0.027364016 2.3418409e-38
23.787008 36.334911 0.20885146 2.3418409e-38
23.713234 36.287743 1.1831031 2.3418409e-38
23.767029 36.303333 0.029235601 2.3418409e-38
23.77722 36.308865 0.20358455 2.3418409e-38
23.771971 36.282261 0.028196812 2.3418409e-38
23.773298 36.283958 0.1999414 2.3418409e-38
23.710674 36.242542 1.017818 2.3418409e-38
23.777313 36.265213 0.027720213 2.3418409e-38
23.759228 36.258392 0.19358349 2.3418409e-38
23.78763 36.246479 0.028430462 2.3418409e-38
23.769585 36.239601 0.19424987 2.3418409e-38
23.744585 36.229633 0.35688138 2.3418409e-38
23.706831 36.214027 0.51689541 2.3418409e-38
23.719307 36.220638 0.68713641 2.3418409e-38
23.708607 36.216984 0.8505044 2.3418409e-38
23.794031 36.227303 0.027967215 2.3418409e-38
23.652531 36.597595 0.028454065 2.3418409e-38
23.65827 36.577003 0.028004408 2.3418409e-38
23.669006 36.559597 0.029298544 2.3418409e-38
23.675373 36.543053 0.029409647 2.3418409e-38
23.785149 36.572144 1.2050362 2.3418409e-38
23.677298 36.522228 0.027784109 2.3418409e-38
23.770636 36.56105 0.39361155 2.3418409e-38
23.754766 36.555954 0.55545557 2.3418409e-38
23.775597 36.565193 0.72323179 2.3418409e-38
23.75631 36.558731 0.88052261 2.3418409e-38
23.76268 36.539711 1.0418125 2.3418409e-38
23.679724 36.50029 0.026165724 2.3418409e-38
23.756701 36.517204 1.0397464 2.3418409e-38
23.688457 36.483379 0.02686739 2.3418409e-38
23.754528 36.511974 0.3854562 2.3418409e-38
23.765684 36.517529 0.55480516 2.3418409e-38
23.795547 36.530502 0.72468877 2.3418409e-38
23.785473 36.527569 0.8836329 2.3418409e-38
23.758568 36.496498 1.0389347 2.3418409e-38
23.768301 36.501461 1.1998239 2.3418409e-38
23.699451 36.466114 0.028159142 2.3418409e-38
23.760065 36.476868 1.0381157 2.3418409e-38
23.701187 36.446396 0.026525497 2.3418409e-38
23.710066 36.429562 0.027225733 2.3418409e-38
23.71944 36.411659 0.027932882 2.3418409e-38
23.798256 36.422485 0.22078121 2.3418409e-38
23.792549 36.40107 0.21711624 2.3418409e-38
23.604523 36.723557 0.027009964 2.3418409e-38
23.783508 36.77681 1.0566778 2.3418409e-38
23.606462 36.706665 0.025948763 2.3418409e-38
23.75285 36.760315 0.24081051 2.3418409e-38
23.791996 36.775467 0.41661739 2.3418409e-38
23.786392 36.757046 1.0561792 2.3418409e-38
23.62044 36.690331 0.028413773 2.3418409e-38
23.791586 36.73687 1.0559996 2.3418409e-38
23.624081 36.66901 0.027381659 2.3418409e-38
23.771982 36.72422 0.24268806 2.3418409e-38
23.630161 36.652348 0.027494907 2.3418409e-38
23.781536 36.70927 0.24387753 2.3418409e-38
23.6411 36.633705 0.028798342 2.3418409e-38
23.774275 36.684399 0.23969471 2.3418409e-38
23.650303 36.614437 0.029517412 2.3418409e-38
23.792351 36.668934 0.24306273 2.3418409e-38
23.794426 36.652428 0.24208653 2.3418409e-38
23.810377 36.785339 0.9029336 2.3418409e-38
23.805382 36.634338 0.24329638 2.3418409e-38
23.805195 36.61322 0.24126303 2.3418409e-38
23.809074 36.983654 1.069826 2.3418409e-38
23.808414 36.847477 1.2191451 2.3418409e-38
23.825178 36.850082 0.75151765 2.3418409e-38
23.811363 36.820152 0.26161623 2.3418409e-38
23.805336 36.819149 0.42330694 2.3418409e-38
23.817146 36.825508 0.74841893 2.3418409e-38
23.800583 37.094238 0.28093481 2.3418409e-38
23.811588 37.098751 0.44533229 2.3418409e-38
23.833879 37.074543 1.2305751 2.3418409e-38
23.812323 37.025211 1.0720716 2.3418409e-38
23.835613 37.027138 0.2852118 2.3418409e-38
23.818977 37.022942 0.44186771 2.3418409e-38
23.818678 37.023964 0.60262024 2.3418409e-38
23.842852 37.033871 0.92154121 2.3418409e-38
23.808437 37.004921 1.0706288 2.3418409e-38
23.813465 37.00761 1.2256234 2.3418409e-38
23.945087 37.386452 0.021319151 2.3418409e-38
23.858906 37.351791 1.2424352 2.3418409e-38
23.951967 37.367958 0.022084713 2.3418409e-38
23.867504 37.349731 0.63254642 2.3418409e-38
23.88138 37.354568 0.79006016 2.3418409e-38
23.881893 37.355797 0.94286358 2.3418409e-38
23.958046 37.35265 0.022827148 2.3418409e-38
23.857662 37.327595 0.31301963 2.3418409e-38
23.87323 37.332962 0.47563088 2.3418409e-38
23.868052 37.332676 0.63176036 2.3418409e-38
23.878599 37.337734 0.94154036 2.3418409e-38
23.977839 37.337742 0.027998686 2.3418409e-38
23.841564 37.287197 1.0867054 2.3418409e-38
23.972067 37.315788 0.024355888 2.3418409e-38
23.832737 37.267349 1.0846279 2.3418409e-38
23.976452 37.300034 0.024467707 2.3418409e-38
23.835979 37.248531 1.0844445 2.3418409e-38
23.98695 37.283756 0.026482582 2.3418409e-38
23.829622 37.241169 0.29948676 2.3418409e-38
23.800114 37.233894 0.45136976 2.3418409e-38
23.818783 37.240341 0.61562324 2.3418409e-38
23.847301 37.249565 0.77814209 2.3418409e-38
23.836193 37.247498 0.93020308 2.3418409e-38
23.818089 37.224792 1.0808101 2.3418409e-38
23.863411 37.23888 1.2397151 2.3418409e-38
23.991718 37.266991 0.026601315 2.3418409e-38
23.989244 37.248116 0.024202108 2.3418409e-38
23.987135 37.228165 0.021810293 2.3418409e-38
23.893534 37.59634 0.019804001 2.3418409e-38
23.88798 37.599667 0.64935446 2.3418409e-38
23.897675 37.578251 0.019935369 2.3418409e-38
23.87406 37.573929 0.17405367 2.3418409e-38
23.8713 37.574444 0.33192003 2.3418409e-38
23.885567 37.578899 0.49233532 2.3418409e-38
23.88833 37.580673 0.64858484 2.3418409e-38
23.902973 37.563801 0.020673752 2.3418409e-38
23.863817 37.542175 1.0985025 2.3418409e-38
23.905617 37.544235 0.02018261 2.3418409e-38
23.864304 37.523064 1.0980071 2.3418409e-38
23.904377 37.524841 0.018423557 2.3418409e-38
23.883543 37.524391 0.64490795 2.3418409e-38
23.893993 37.528019 0.80025315 2.3418409e-38
23.890924 37.528374 0.95106125 2.3418409e-38
23.862932 37.503471 1.097198 2.3418409e-38
23.876385 37.507832 1.2489022 2.3418409e-38
23.90873 37.506786 0.018554211 2.3418409e-38
23.872999 37.500355 0.32810378 2.3418409e-38
23.896545 37.507248 0.49135685 2.3418409e-38
23.87277 37.502563 0.64143443 2.3418409e-38
23.855606 37.483509 1.0954404 2.3418409e-38
23.916561 37.490719 0.0199368 2.3418409e-38
23.924435 37.474682 0.021318674 2.3418409e-38
23.92683 37.457275 0.020810843 2.3418409e-38
23.92614 37.43681 0.019058466 2.3418409e-38
23.934702 37.418716 0.020454884 2.3418409e-38
23.936707 37.403435 0.01993084 2.3418409e-38
23.846565 37.791782 0.016468525 2.3418409e-38
23.891037 37.789688 1.1093698 2.3418409e-38
23.851988 37.773922 0.01723361 2.3418409e-38
23.963203 37.797276 0.21362829 2.3418409e-38
23.908451 37.787529 0.35321462 2.3418409e-38
23.916996 37.791508 0.66383588 2.3418409e-38
23.927986 37.794804 0.81709826 2.3418409e-38
23.917572 37.793842 0.9643681 2.3418409e-38
23.892481 37.772255 1.1091814 2.3418409e-38
23.853527 37.756405 0.01673007 2.3418409e-38
23.964668 37.780064 0.21316659 2.3418409e-38
23.900213 37.753876 1.1099511 2.3418409e-38
23.853693 37.736362 0.015611172 2.3418409e-38
23.964737 37.760361 0.21213436 2.3418409e-38
23.917557 37.740814 1.2596712 2.3418409e-38
23.864632 37.720772 0.018259287 2.3418409e-38
23.962563 37.742363 0.21050084 2.3418409e-38
23.866323 37.703274 0.017754555 2.3418409e-38
23.95483 37.723156 0.20710945 2.3418409e-38
23.874086 37.684834 0.019156694 2.3418409e-38
23.953213 37.702991 0.20549142 2.3418409e-38
23.879589 37.668156 0.019912243 2.3418409e-38
23.943735 37.683285 0.20151472 2.3418409e-38
23.881432 37.650681 0.019407034 2.3418409e-38
23.938055 37.664341 0.19870973 2.3418409e-38
23.883795 37.631077 0.018917084 2.3418409e-38
23.932901 37.643238 0.19592023 2.3418409e-38
23.887594 37.614025 0.019041777 2.3418409e-38
23.934807 37.6259 0.19545805 2.3418409e-38
23.884495 37.603264 1.2522752 2.3418409e-38
23.912769 37.601936 0.18739057 2.3418409e-38
23.90811 37.605385 0.80622911 2.3418409e-38
23.909006 37.606689 0.95702755 2.3418409e-38
23.809437 37.990498 0.014351606 2.3418409e-38
23.890659 37.992123 1.1135676 2.3418409e-38
23.814457 37.97139 0.015128374 2.3418409e-38
23.821407 37.952621 0.016536236 2.3418409e-38
23.982239 37.981068 0.22815669 2.3418409e-38
23.820204 37.936905 0.015387297 2.3418409e-38
23.986595 37.966705 0.22885311 2.3418409e-38
23.823334 37.918594 0.015524387 2.3418409e-38
23.97834 37.946915 0.22546852 2.3418409e-38
23.82671 37.89922 0.015669346 2.3418409e-38
23.981632 37.928024 0.22560978 2.3418409e-38
23.8277 37.882744 0.01515913 2.3418409e-38
23.978773 37.91127 0.22396839 2.3418409e-38
23.827456 37.862698 0.014041901 2.3418409e-38
23.976534 37.891342 0.2223506 2.3418409e-38
23.893448 37.864143 1.2587585 2.3418409e-38
23.83287 37.843685 0.014816523 2.3418409e-38
23.97436 37.871387 0.22073269 2.3418409e-38
23.940472 37.866199 0.36569345 2.3418409e-38
23.927086 37.864838 0.51570225 2.3418409e-38
23.928513 37.866241 0.66918385 2.3418409e-38
23.931263 37.86898 0.96889472 2.3418409e-38
23.913372 37.851372 1.1143019 2.3418409e-38
23.835672 37.828636 0.014928341 2.3418409e-38
23.971462 37.855614 0.21908367 2.3418409e-38
23.86092 37.822605 1.2536447 2.3418409e-38
23.843056 37.81002 0.016333342 2.3418409e-38
23.967529 37.835255 0.21687973 2.3418409e-38
23.96909 37.817013 0.21642601 2.3418409e-38
23.998249 38.197784 0.24123776 2.3418409e-38
23.997059 38.163525 0.23973215 2.3418409e-38
23.800306 38.115047 0.016576529 2.3418409e-38
23.997776 38.144421 0.23928857 2.3418409e-38
23.997955 38.129501 0.23881316 2.3418409e-38
23.994997 38.109829 0.23719573 2.3418409e-38
23.932083 38.090073 1.267367 2.3418409e-38
23.807957 38.062126 0.016977549 2.3418409e-38
23.99951 38.092323 0.23791718 2.3418409e-38
23.912537 38.080341 0.36626399 2.3418409e-38
23.937428 38.085258 0.52603579 2.3418409e-38
23.916006 38.083179 0.67300475 2.3418409e-38
23.940884 38.088058 0.82798302 2.3418409e-38
23.924828 38.086761 0.97270823 2.3418409e-38
23.80509 38.042912 0.015222549 2.3418409e-38
23.998405 38.073959 0.2368784 2.3418409e-38
23.919409 38.050167 1.1191547 2.3418409e-38
23.80978 38.024853 0.015992641 2.3418409e-38
23.997356 38.055584 0.23583961 2.3418409e-38
23.917995 38.033642 1.1186452 2.3418409e-38
23.817932 38.009571 0.018007994 2.3418409e-38
23.992258 38.038681 0.2336117 2.3418409e-38
23.916794 38.016041 1.1181436 2.3418409e-38
23.989262 38.021004 0.2319783 2.3418409e-38
23.934603 38.013268 0.37003589 2.3418409e-38
23.926666 38.014278 0.67352474 2.3418409e-38
23.936037 38.016926 0.82524979 2.3418409e-38
23.935474 38.017948 0.97322738 2.3418409e-38
23.941891 38.001671 1.2674912 2.3418409e-38
23.990433 38.001835 0.23153365 2.3418409e-38
23.994534 38.399441 1.1355104 2.3418409e-38
23.988354 38.381874 1.134378 2.3418409e-38
23.986153 38.364685 1.1338766 2.3418409e-38
23.996492 38.362392 0.69766068 2.3418409e-38
23.998726 38.363766 0.84508598 2.3418409e-38
23.994732 38.364468 0.98983419 2.3418409e-38
23.986191 38.345592 1.1337068 2.3418409e-38
23.996265 38.342152 0.54754984 2.3418409e-38
23.99683 38.344505 0.84441721 2.3418409e-38
23.998686 38.345829 0.99034119 2.3418409e-38
23.980167 38.327934 1.1325746 2.3418409e-38
23.994507 38.326157 0.69657803 2.3418409e-38
23.998653 38.327755 0.84454632 2.3418409e-38
23.996601 38.328648 0.98974729 2.3418409e-38
23.980322 38.308811 1.1324048 2.3418409e-38
23.99081 38.306641 0.69536591 2.3418409e-38
23.994928 38.308247 0.84347022 2.3418409e-38
23.994804 38.309357 0.98916936 2.3418409e-38
23.97637 38.291325 1.1315879 2.3418409e-38
23.997593 38.288143 0.39625013 2.3418409e-38
23.990582 38.288471 0.54496598 2.3418409e-38
23.979195 38.288277 0.69232845 2.3418409e-38
23.981297 38.289658 0.840343 2.3418409e-38
23.969381 38.289375 0.98423827 2.3418409e-38
23.941095 38.270027 1.1257262 2.3418409e-38
23.965168 38.267227 0.38661277 2.3418409e-38
23.938713 38.265179 0.53115833 2.3418409e-38
23.95392 38.253418 1.272089 2.3418409e-38
23.978596 38.592453 1.1340039 2.3418409e-38
23.958851 38.585297 0.390674 2.3418409e-38
23.978539 38.566463 0.24368346 2.3418409e-38
23.964479 38.548531 0.23911309 2.3418409e-38
23.82546 38.519562 0.036258221 2.3418409e-38
23.971439 38.532139 0.24100816 2.3418409e-38
23.908272 38.506775 0.063595533 2.3418409e-38
23.976704 38.513531 0.24233162 2.3418409e-38
23.96257 38.494221 0.081429482 2.3418409e-38
23.985664 38.497372 0.24481344 2.3418409e-38
23.996098 38.480164 0.092307329 2.3418409e-38
23.990858 38.480927 0.2461195 2.3418409e-38
23.998184 38.462582 0.24802923 2.3418409e-38
23.995857 38.445492 0.24698448 2.3418409e-38
23.966805 38.446342 0.69201481 2.3418409e-38
23.980631 38.448753 0.84238315 2.3418409e-38
23.983223 38.645447 1.134855 2.3418409e-38
23.922476 38.634777 0.22724545 2.3418409e-38
23.984278 38.627605 1.1349957 2.3418409e-38
23.967421 38.619537 0.24091041 2.3418409e-38
23.983416 38.609642 1.1348201 2.3418409e-38
23.990294 38.611214 1.2788022 2.3418409e-38
24.036934 38.396832 0.25855076 2.3418409e-38
24.020798 38.396378 0.40521312 2.3418409e-38
24.01399 38.396851 0.55312133 2.3418409e-38
24.006657 38.397266 0.70056951 2.3418409e-38
24.008961 38.398636 0.84767759 2.3418409e-38
24.008944 38.399757 0.99282992 2.3418409e-38
24.109602 38.386402 0.12787366 2.3418409e-38
24.036697 38.380005 0.2580924 2.3418409e-38
24.016724 38.379101 0.40371394 2.3418409e-38
24.011808 38.379753 0.55225468 2.3418409e-38
24.00058 38.379745 0.69888878 2.3418409e-38
24.004791 38.381317 0.84658539 2.3418409e-38
24.000834 38.382034 0.99115121 2.3418409e-38
24.107521 38.369572 0.126737 2.3418409e-38
24.030807 38.36256 0.25587165 2.3418409e-38
24.008871 38.361393 0.40112913 2.3418409e-38
24.003899 38.362022 0.54989409 2.3418409e-38
24.107594 38.35088 0.12624824 2.3418409e-38
24.028992 38.343414 0.2548418 2.3418409e-38
24.00321 38.341755 0.39910328 2.3418409e-38
24.004299 38.344189 0.69916356 2.3418409e-38
24.105614 38.334023 0.12511122 2.3418409e-38
24.032705 38.326977 0.2555573 2.3418409e-38
24.010773 38.325676 0.40086055 2.3418409e-38
24.005791 38.326271 0.54967046 2.3418409e-38
24.107685 38.315529 0.12525356 2.3418409e-38
24.031004 38.307816 0.25452721 2.3418409e-38
24.007139 38.306217 0.39937711 2.3418409e-38
24.007896 38.307461 0.5498153 2.3418409e-38
24.111458 38.299324 0.12601149 2.3418409e-38
24.027224 38.290493 0.25289381 2.3418409e-38
24.113392 38.282902 0.12613761 2.3418409e-38
24.010208 38.271526 0.2471509 2.3418409e-38
24.111858 38.263966 0.12501621 2.3418409e-38
24.01058 38.252499 0.24670792 2.3418409e-38
24.110126 38.247063 0.1238786 2.3418409e-38
24.00696 38.235065 0.24507475 2.3418409e-38
24.11409 38.230885 0.1246357 2.3418409e-38
24.001493 38.217365 0.24285471 2.3418409e-38
24.039368 38.202099 0.09888649 2.3418409e-38
24.197914 38.598186 0.010322094 2.3418409e-38
24.009676 38.587593 0.25352859 2.3418409e-38
24.03418 38.57851 1.284755 2.3418409e-38
24.199152 38.579983 0.010465145 2.3418409e-38
24.19957 38.478268 0.0085513592 2.3418409e-38
24.041176 38.465229 0.10699248 2.3418409e-38
24.084215 38.452461 0.12102699 2.3418409e-38
24.00597 38.452202 0.99278617 2.3418409e-38
24.115944 38.438847 0.13126755 2.3418409e-38
24.020226 38.43092 0.25416434 2.3418409e-38
24.12524 38.421131 0.13393879 2.3418409e-38
24.029608 38.412907 0.25665963 2.3418409e-38
24.117397 38.40379 0.13090599 2.3418409e-38
24.190495 38.782475 0.0095396042 2.3418409e-38
24.191078 38.766273 0.0096688271 2.3418409e-38
24.189827 38.749996 0.0091209412 2.3418409e-38
24.190586 38.731766 0.0092661381 2.3418409e-38
24.193192 38.71566 0.010071278 2.3418409e-38
24.19025 38.698257 0.0088546276 2.3418409e-38
24.011337 38.691429 0.25506437 2.3418409e-38
24.037401 38.693966 0.41376853 2.3418409e-38
24.021137 38.694313 0.55828345 2.3418409e-38
24.013943 38.695122 0.70504737 2.3418409e-38
24.028137 38.696999 0.85392392 2.3418409e-38
24.185482 38.680737 0.0069615841 2.3418409e-38
24.013487 38.679604 0.99536061 2.3418409e-38
24.195635 38.667088 0.010456085 2.3418409e-38
24.192038 38.631325 0.0087065697 2.3418409e-38
24.004112 38.625401 0.70241952 2.3418409e-38
24.018227 38.62743 0.85161233 2.3418409e-38
24.026186 38.629066 0.99757588 2.3418409e-38
24.188911 38.985081 0.0085878372 2.3418409e-38
24.045542 38.978855 1.2850894 2.3418409e-38
24.175756 38.968803 0.0039784908 2.3418409e-38
24.188992 38.952671 0.0088503361 2.3418409e-38
24.028736 38.942234 1.1413662 2.3418409e-38
24.045732 38.943539 1.2853748 2.3418409e-38
24.189114 38.934437 0.0089974403 2.3418409e-38
24.068928 38.936771 0.42271411 2.3418409e-38
24.187391 38.918205 0.008450985 2.3418409e-38
24.058025 38.918869 0.26973581 2.3418409e-38
24.041431 38.921051 0.563465 2.3418409e-38
24.01296 38.921871 0.70459712 2.3418409e-38
24.023283 38.92318 0.85252476 2.3418409e-38
24.187609 38.900982 0.008589983 2.3418409e-38
24.013569 38.89196 1.1392339 2.3418409e-38
24.180317 38.885639 0.0060040951 2.3418409e-38
24.009964 38.873081 1.1387513 2.3418409e-38
24.180653 38.867382 0.0061507225 2.3418409e-38
24.007233 38.865921 0.25426126 2.3418409e-38
24.06797 38.868484 0.42271948 2.3418409e-38
24.026749 38.868767 0.5598892 2.3418409e-38
24.031298 38.870052 0.70910132 2.3418409e-38
24.012295 38.856411 1.1392022 2.3418409e-38
24.184761 38.85125 0.0076348782 2.3418409e-38
24.020691 38.855457 0.99650216 2.3418409e-38
24.187084 38.833057 0.0084581375 2.3418409e-38
24.034096 38.822662 1.2844473 2.3418409e-38
24.187527 38.816849 0.0085878372 2.3418409e-38
24.182369 38.800446 0.0066869259 2.3418409e-38
24.186947 39.189823 0.0048840046 2.3418409e-38
24.053776 39.196709 0.26511705 2.3418409e-38
24.057089 39.197834 0.41623104 2.3418409e-38
24.060316 39.198944 0.56519783 2.3418409e-38
24.068935 39.199867 0.71459472 2.3418409e-38
24.184479 39.172653 0.0043478012 2.3418409e-38
24.029181 39.169327 1.1392004 2.3418409e-38
24.191465 39.15522 0.0072004795 2.3418409e-38
24.038523 39.150333 1.1409421 2.3418409e-38
24.189072 39.137039 0.0066721439 2.3418409e-38
24.051899 39.132347 1.1433096 2.3418409e-38
24.18676 39.119858 0.0061357021 2.3418409e-38
24.0739 39.130688 1.0040798 2.3418409e-38
24.186399 39.103645 0.0062682629 2.3418409e-38
24.189867 39.08839 0.0077476501 2.3418409e-38
24.070099 39.09272 0.27185857 2.3418409e-38
24.05238 39.094223 0.41653621 2.3418409e-38
24.18392 39.070229 0.0058636665 2.3418409e-38
24.181816 39.054024 0.0053186417 2.3418409e-38
24.181641 39.0378 0.0054507256 2.3418409e-38
24.189026 39.01952 0.0083086491 2.3418409e-38
24.181419 39.003319 0.0057308674 2.3418409e-38
24.092915 39.366779 0.27313089 2.3418409e-38
24.104116 39.367329 0.42571509 2.3418409e-38
24.197981 39.339474 0.0050001144 2.3418409e-38
24.085152 39.351105 0.56843472 2.3418409e-38
24.05109 39.354355 0.70741236 2.3418409e-38
24.075214 39.354122 0.85757947 2.3418409e-38
24.042208 39.357292 0.99458098 2.3418409e-38
24.195129 39.323395 0.0044565201 2.3418409e-38
24.190445 39.307404 0.0032346249 2.3418409e-38
24.187574 39.289268 0.0027077198 2.3418409e-38
24.186743 39.27306 0.0028421879 2.3418409e-38
24.193474 39.256516 0.0056884289 2.3418409e-38
24.194523 39.238216 0.0065169334 2.3418409e-38
24.074329 39.237507 1.2862306 2.3418409e-38
24.188192 39.222244 0.0046169758 2.3418409e-38
24.187508 39.205021 0.0047588348 2.3418409e-38
24.089306 39.200367 0.86334896 2.3418409e-38
24.123932 39.596214 1.2864867 2.3418409e-38
24.056349 39.594406 0.25414062 2.3418409e-38
24.122431 39.561165 1.2870543 2.3418409e-38
24.100487 39.494785 1.285444 2.3418409e-38
24.093327 39.455338 0.71474278 2.3418409e-38
24.119553 39.454521 0.86450803 2.3418409e-38
24.127932 39.455063 1.008294 2.3418409e-38
24.100929 39.441792 1.1461387 2.3418409e-38
24.063988 39.419514 0.26267934 2.3418409e-38
24.071121 39.420265 0.41493011 2.3418409e-38
24.137794 39.750244 1.2846322 2.3418409e-38
24.116344 39.69968 1.1423727 2.3418409e-38
24.13789 39.69096 0.42407441 2.3418409e-38
24.133671 39.692715 0.57005155 2.3418409e-38
24.125032 39.694984 0.71453214 2.3418409e-38
24.134258 39.673527 0.27466762 2.3418409e-38
24.125921 39.679493 0.85933566 2.3418409e-38
24.091225 39.684727 0.9954555 2.3418409e-38
24.075157 39.62698 0.2585752 2.3418409e-38
24.084133 39.627308 0.41155207 2.3418409e-38
24.093098 39.627613 0.56211376 2.3418409e-38
24.122986 39.625683 0.71648419 2.3418409e-38
24.141426 39.624935 0.8642962 2.3418409e-38
24.13612 39.626709 1.0053926 2.3418409e-38
24.138786 39.961105 1.2787449 2.3418409e-38
24.142677 39.95163 0.26285183 2.3418409e-38
24.163136 39.949604 0.41858041 2.3418409e-38
24.155054 39.952202 0.56382024 2.3418409e-38
24.155993 39.953327 0.71094453 2.3418409e-38
24.180035 39.950653 0.86027122 2.3418409e-38
24.130983 39.940998 0.99397707 2.3418409e-38
24.071289 39.933796 1.1279919 2.3418409e-38
24.144957 39.883965 0.71154606 2.3418409e-38
24.174849 39.880692 0.86210406 2.3418409e-38
24.173466 39.88213 1.0039297 2.3418409e-38
24.13229 39.85524 1.2810178 2.3418409e-38
24.120726 39.848148 0.26198173 2.3418409e-38
24.08408 39.854736 0.40144002 2.3418409e-38
24.151112 39.819176 1.2845827 2.3418409e-38
24.147678 40.178616 0.24967527 2.3418409e-38
24.158062 40.146992 0.99035919 2.3418409e-38
24.167648 40.127361 1.1361295 2.3418409e-38
24.173346 40.101704 0.26271737 2.3418409e-38
24.152157 40.107033 0.40631843 2.3418409e-38
24.138172 40.110985 0.55094421 2.3418409e-38
24.098686 40.119778 0.68951166 2.3418409e-38
24.114494 40.118061 0.83918989 2.3418409e-38
24.075975 40.126659 0.9763763 2.3418409e-38
24.173737 40.057972 1.28034 2.3418409e-38
24.176628 40.391533 1.1261748 2.3418409e-38
24.171167 40.386269 0.39241064 2.3418409e-38
24.177792 40.386032 0.54350853 2.3418409e-38
24.180428 40.373463 1.1276047 2.3418409e-38
24.172749 40.358112 1.1271081 2.3418409e-38
24.132603 40.35952 0.23158205 2.3418409e-38
24.143427 40.214588 0.24582446 2.3418409e-38
24.176586 40.209042 0.4065069 2.3418409e-38
24.174047 40.210884 0.55405831 2.3418409e-38
24.190067 40.208858 0.70552385 2.3418409e-38
24.196999 40.209961 0.99452353 2.3418409e-38
24.185377 40.440346 0.69029224 2.3418409e-38
24.189816 40.441856 0.98156106 2.3418409e-38
24.177217 40.41074 1.1253687 2.3418409e-38
24.196333 40.743824 0.21632421 2.3418409e-38
24.163372 40.733765 0.2075876 2.3418409e-38
24.19523 40.696377 1.2572756 2.3418409e-38
24.1849 40.691296 0.37114596 2.3418409e-38
24.191261 40.692204 0.67393529 2.3418409e-38
24.196985 40.693218 0.96838915 2.3418409e-38
24.183346 40.606396 1.1166279 2.3418409e-38
24.358385 40.390858 -0.0047781467 2.3418409e-38
24.348751 40.375469 -0.0066709518 2.3418409e-38
24.346712 40.359264 -0.0058484077 2.3418409e-38
24.336927 40.342823 -0.0077321529 2.3418409e-38
24.208668 40.380005 0.69945908 2.3418409e-38
24.22649 40.377052 0.848333 2.3418409e-38
24.232588 40.376881 0.99267304 2.3418409e-38
24.342308 40.324883 -0.004185915 2.3418409e-38
24.338581 40.309097 -0.0040445328 2.3418409e-38
24.332609 40.291748 -0.0045666695 2.3418409e-38
24.33448 40.2747 -0.0023829937 2.3418409e-38
24.327225 40.259712 -0.0036036968 2.3418409e-38
24.326916 40.241104 -0.0020837784 2.3418409e-38
24.319748 40.226074 -0.0033042431 2.3418409e-38
24.319763 40.208454 -0.0017933846 2.3418409e-38
24.210016 40.205982 0.85435224 2.3418409e-38
24.395084 40.537373 -0.0067811012 2.3418409e-38
24.23 40.579643 1.2672822 2.3418409e-38
24.389488 40.524185 -0.0073382854 2.3418409e-38
24.390388 40.506092 -0.0051424503 2.3418409e-38
24.381996 40.489449 -0.0063457489 2.3418409e-38
24.374434 40.475712 -0.0075755119 2.3418409e-38
24.375233 40.456638 -0.0053715706 2.3418409e-38
24.368809 40.439453 -0.0058932304 2.3418409e-38
24.365267 40.425705 -0.0057692528 2.3418409e-38
24.36441 40.407112 -0.004247427 2.3418409e-38
24.208761 40.430527 0.24860656 2.3418409e-38
24.20738 40.433563 0.54757583 2.3418409e-38
24.209448 40.792889 0.21528387 2.3418409e-38
24.209587 40.774044 0.21722329 2.3418409e-38
24.235806 40.721703 1.2613785 2.3418409e-38
24.206284 40.683681 0.22511649 2.3418409e-38
24.207775 40.68602 0.5283072 2.3418409e-38
24.21777 40.685822 0.82714987 2.3418409e-38
24.211521 40.655285 1.1184005 2.3418409e-38
24.2031 40.640202 1.1179044 2.3418409e-38
24.205555 40.619865 1.1193572 2.3418409e-38
24.227581 40.605652 0.23877919 2.3418409e-38
24.211399 40.614258 0.68417847 2.3418409e-38
24.290499 40.988605 0.21817327 2.3418409e-38
24.288536 40.971428 0.21951103 2.3418409e-38
24.280516 40.954113 0.21908438 2.3418409e-38
24.276848 40.937542 0.21982765 2.3418409e-38
24.243328 40.940689 1.2512265 2.3418409e-38
24.265985 40.923393 0.21819389 2.3418409e-38
24.201031 40.946621 0.35137796 2.3418409e-38
24.223253 40.940578 0.50998068 2.3418409e-38
24.21769 40.943855 0.65981197 2.3418409e-38
24.249184 40.934647 0.81545687 2.3418409e-38
24.239655 40.939217 0.95994747 2.3418409e-38
24.252674 40.907799 0.21598482 2.3418409e-38
24.225487 40.90728 1.1062567 2.3418409e-38
24.252769 40.889973 0.21791649 2.3418409e-38
24.22579 40.889317 1.107374 2.3418409e-38
24.225491 40.869358 1.1085095 2.3418409e-38
24.235695 40.867386 1.2540747 2.3418409e-38
24.23793 40.857048 0.21704483 2.3418409e-38
24.218433 40.86475 0.36410725 2.3418409e-38
24.211527 40.868385 0.51364684 2.3418409e-38
24.220821 40.866783 0.66688108 2.3418409e-38
24.237511 40.864113 0.96463728 2.3418409e-38
24.203354 40.858658 1.1057574 2.3418409e-38
24.225447 40.843292 0.21481812 2.3418409e-38
24.236645 40.831581 1.2560315 2.3418409e-38
24.222099 40.826603 0.21556103 2.3418409e-38
24.210873 40.810173 0.21394718 2.3418409e-38
24.338982 41.196068 0.20797765 2.3418409e-38
24.32888 41.180653 0.20694733 2.3418409e-38
24.309629 41.189518 0.35453308 2.3418409e-38
24.302732 41.193619 0.50460613 2.3418409e-38
24.309916 41.192287 0.65792918 2.3418409e-38
24.311726 41.193001 0.80690157 2.3418409e-38
24.313232 41.193817 0.95428765 2.3418409e-38
24.284491 41.189133 1.0972762 2.3418409e-38
24.328503 41.163776 0.20887268 2.3418409e-38
24.312862 41.1712 0.3574264 2.3418409e-38
24.307821 41.174568 0.50778127 2.3418409e-38
24.302347 41.178093 0.6576103 2.3418409e-38
24.318768 41.173222 0.80994737 2.3418409e-38
24.316664 41.175419 0.95627606 2.3418409e-38
24.288689 41.166977 1.0993863 2.3418409e-38
24.327044 41.143944 0.21082592 2.3418409e-38
24.309622 41.151985 0.35869646 2.3418409e-38
24.302788 41.156006 0.50845623 2.3418409e-38
24.299137 41.158821 0.65870035 2.3418409e-38
24.315596 41.153992 0.81094635 2.3418409e-38
24.309828 41.157566 0.95644522 2.3418409e-38
24.290026 41.148251 1.1008302 2.3418409e-38
24.324614 41.126774 0.21216524 2.3418409e-38
24.299994 41.137455 0.35774589 2.3418409e-38
24.302189 41.138065 0.51012325 2.3418409e-38
24.29492 41.142223 0.65931106 2.3418409e-38
24.307741 41.138809 0.8106817 2.3418409e-38
24.30748 41.140297 0.95733416 2.3418409e-38
24.283279 41.13031 1.1009997 2.3418409e-38
24.317911 41.108955 0.21233368 2.3418409e-38
24.27704 41.12558 0.35296297 2.3418409e-38
24.266438 41.130959 0.5022049 2.3418409e-38
24.268114 41.131771 0.65441942 2.3418409e-38
24.280848 41.128437 0.806288 2.3418409e-38
24.280493 41.129963 0.95344138 2.3418409e-38
24.251411 41.123928 1.0966265 2.3418409e-38
24.274292 41.11684 1.2455127 2.3418409e-38
24.310211 41.093758 0.21188867 2.3418409e-38
24.206131 41.13353 0.33330643 2.3418409e-38
24.276814 41.108936 0.50690472 2.3418409e-38
24.211018 41.134624 0.64168954 2.3418409e-38
24.258377 41.118568 0.80270612 2.3418409e-38
24.237663 41.127609 0.94620764 2.3418409e-38
24.221386 41.116703 1.0925775 2.3418409e-38
24.393196 41.044014 0.087396622 2.3418409e-38
24.309725 41.075916 0.21382236 2.3418409e-38
24.347536 41.040569 0.073502779 2.3418409e-38
24.303183 41.058052 0.21399057 2.3418409e-38
24.306128 41.037567 0.060870886 2.3418409e-38
24.30101 41.040867 0.21532905 2.3418409e-38
24.257545 41.036888 0.045684576 2.3418409e-38
24.298891 41.023689 0.21666741 2.3418409e-38
24.218937 41.030163 0.034352779 2.3418409e-38
24.297918 41.003891 0.21861863 2.3418409e-38
24.343836 41.384892 0.18557835 2.3418409e-38
24.34244 41.366898 0.18751645 2.3418409e-38
24.342863 41.348179 0.19004965 2.3418409e-38
24.338997 41.328964 0.19141066 2.3418409e-38
24.339138 41.309296 0.19395268 2.3418409e-38
24.340151 41.291618 0.19647539 2.3418409e-38
24.340019 41.271004 0.19902587 2.3418409e-38
24.282188 41.285759 1.2366004 2.3418409e-38
24.330109 41.256622 0.19798636 2.3418409e-38
24.339771 41.234489 0.20349312 2.3418409e-38
24.336287 41.215328 0.20485234 2.3418409e-38
24.317043 41.224319 0.35257053 2.3418409e-38
24.319138 41.224949 0.50530624 2.3418409e-38
24.308207 41.230675 0.65393519 2.3418409e-38
24.322689 41.226414 0.80617559 2.3418409e-38
24.316868 41.230099 0.95212913 2.3418409e-38
24.293173 41.222431 1.0963268 2.3418409e-38
24.316193 41.206375 0.35437298 2.3418409e-38
24.316519 41.207691 0.50646853 2.3418409e-38
24.307409 41.212669 0.65546751 2.3418409e-38
24.32011 41.209145 0.80715644 2.3418409e-38
24.317963 41.21138 0.95375812 2.3418409e-38
24.290262 41.204079 1.0971345 2.3418409e-38
24.313549 41.594971 -0.012820005 2.3418409e-38
24.303646 41.5779 -0.013286591 2.3418409e-38
24.296421 41.562004 -0.013131857 2.3418409e-38
24.330116 41.548431 0.15987587 2.3418409e-38
24.292255 41.543552 -0.011686563 2.3418409e-38
24.32951 41.528507 0.16242266 2.3418409e-38
24.346718 41.522354 0.32468987 2.3418409e-38
24.298805 41.545242 0.46530163 2.3418409e-38
24.299335 41.534462 1.2231112 2.3418409e-38
24.280373 41.530922 -0.013462543 2.3418409e-38
24.345562 41.503624 0.17031169 2.3418409e-38
24.275867 41.51144 -0.012007713 2.3418409e-38
24.342922 41.483566 0.17227089 2.3418409e-38
24.240608 41.533058 0.60930359 2.3418409e-38
24.280872 41.516823 0.77195334 2.3418409e-38
24.267332 41.524246 0.91992795 2.3418409e-38
24.267092 41.496223 -0.012493372 2.3418409e-38
24.349968 41.461678 0.17718911 2.3418409e-38
24.27989 41.479752 1.0761315 2.3418409e-38
24.259224 41.478226 -0.012319565 2.3418409e-38
24.350975 41.440155 0.18033886 2.3418409e-38
24.276852 41.473694 0.31265509 2.3418409e-38
24.283413 41.458103 1.0782398 2.3418409e-38
24.248363 41.462696 -0.013434887 2.3418409e-38
24.34898 41.421146 0.18228722 2.3418409e-38
24.28968 41.437714 1.0806522 2.3418409e-38
24.243633 41.446911 -0.012650013 2.3418409e-38
24.349648 41.403374 0.18481183 2.3418409e-38
24.253937 41.450069 0.77300656 2.3418409e-38
24.233103 41.460411 0.91945708 2.3418409e-38
24.282354 41.421055 1.2282662 2.3418409e-38
24.237667 41.428101 -0.011836052 2.3418409e-38
24.258835 41.40033 -0.0014426708 2.3418409e-38
24.396214 41.75489 -0.012491703 2.3418409e-38
24.351475 41.780064 0.29226351 2.3418409e-38
24.336798 41.788841 0.4449569 2.3418409e-38
24.321699 41.797829 0.59764445 2.3418409e-38
24.309782 41.790005 1.2070854 2.3418409e-38
24.388496 41.739254 -0.012336969 2.3418409e-38
24.377411 41.725246 -0.013464451 2.3418409e-38
24.276871 41.78183 0.74528611 2.3418409e-38
24.282543 41.780582 0.90002131 2.3418409e-38
24.286722 41.759125 1.0556853 2.3418409e-38
24.364178 41.71104 -0.015222549 2.3418409e-38
24.309267 41.728664 1.0613636 2.3418409e-38
24.354872 41.696129 -0.015708685 2.3418409e-38
24.361759 41.695976 0.30613899 2.3418409e-38
24.340277 41.707787 0.45573139 2.3418409e-38
24.346355 41.706409 0.61305308 2.3418409e-38
24.347328 41.707443 0.76601183 2.3418409e-38
24.355183 41.705166 0.9188875 2.3418409e-38
24.313171 41.704853 1.0638123 2.3418409e-38
24.35836 41.672726 -0.011049509 2.3418409e-38
24.349157 41.657791 -0.011535883 2.3418409e-38
24.331409 41.646832 -0.015225172 2.3418409e-38
24.323069 41.629036 -0.015050888 2.3418409e-38
24.320408 41.609829 -0.012964964 2.3418409e-38
24.367517 41.959053 0.27146029 2.3418409e-38
24.354382 41.967545 0.42622399 2.3418409e-38
24.364992 41.963547 0.58738494 2.3418409e-38
24.382816 41.955719 0.74682367 2.3418409e-38
24.374559 41.961597 0.89822435 2.3418409e-38
24.359291 41.951077 1.0503029 2.3418409e-38
24.36441 41.949909 1.2022536 2.3418409e-38
24.368711 42.198135 0.7174648 2.3418409e-38
24.337551 42.195522 1.026027 2.3418409e-38
24.370014 42.041012 0.2603128 2.3418409e-38
24.326126 42.066334 0.4067837 2.3418409e-38
24.340767 42.044571 1.1923857 2.3418409e-38
24.292942 42.043533 0.56301653 2.3418409e-38
24.322338 42.029427 0.72773075 2.3418409e-38
24.315487 42.034641 0.88155055 2.3418409e-38
24.264334 42.041683 1.0291574 2.3418409e-38
24.398266 42.371998 0.21728504 2.3418409e-38
24.391541 42.353409 0.21856248 2.3418409e-38
24.370003 42.343647 0.21485984 2.3418409e-38
24.364538 42.326958 0.21611726 2.3418409e-38
24.390009 42.2915 0.55189741 2.3418409e-38
24.385132 42.27813 1.0251868 2.3418409e-38
24.374701 42.276089 0.22641611 2.3418409e-38
24.379475 42.274963 0.39021277 2.3418409e-38
24.328802 42.215893 0.22431219 2.3418409e-38
24.3386 42.211987 0.38985682 2.3418409e-38
24.3433 42.21096 0.55271769 2.3418409e-38
24.360096 42.204617 0.87186646 2.3418409e-38
24.330111 42.201286 1.1791848 2.3418409e-38
24.38579 42.538055 0.35361505 2.3418409e-38
24.391403 42.536224 0.51993573 2.3418409e-38
24.278233 42.581425 -0.015719414 2.3418409e-38
24.262094 42.566479 -0.017327547 2.3418409e-38
24.362141 42.50774 0.35293245 2.3418409e-38
24.247238 42.553471 -0.018955946 2.3418409e-38
24.24155 42.533417 -0.016985893 2.3418409e-38
24.360081 42.464115 0.35886514 2.3418409e-38
24.365814 42.462284 0.52477694 2.3418409e-38
24.395241 42.445858 0.69332302 2.3418409e-38
24.388084 42.451897 0.85050583 2.3418409e-38
24.36191 42.446617 1.0063955 2.3418409e-38
24.359386 42.449776 1.1628703 2.3418409e-38
24.231041 42.516338 -0.016809702 2.3418409e-38
24.21895 42.500217 -0.017231464 2.3418409e-38
24.204245 42.487034 -0.018859148 2.3418409e-38
24.397148 42.784081 -0.021362543 2.3418409e-38
24.384308 42.768524 -0.021786213 2.3418409e-38
24.376278 42.749752 -0.020413637 2.3418409e-38
24.363255 42.737144 -0.02145648 2.3418409e-38
24.392071 42.721588 0.32728589 2.3418409e-38
24.351486 42.719444 -0.021270752 2.3418409e-38
24.338829 42.703735 -0.021693707 2.3418409e-38
24.327814 42.686947 -0.021518469 2.3418409e-38
24.31974 42.671066 -0.020764828 2.3418409e-38
24.310429 42.653191 -0.019990683 2.3418409e-38
24.301809 42.636284 -0.019227028 2.3418409e-38
24.293583 42.616344 -0.017844677 2.3418409e-38
24.281214 42.600437 -0.018266916 2.3418409e-38
24.373203 42.807369 0.64473093 2.3418409e-38
24.3866 42.800026 0.8117696 2.3418409e-38
24.333021 42.813553 0.96688569 2.3418409e-38
24.440231 41.193359 0.082816362 2.3418409e-38
24.596977 41.110497 -0.008728981 2.3418409e-38
24.422728 41.180042 0.079145432 2.3418409e-38
24.591057 41.095421 -0.008585453 2.3418409e-38
24.430752 41.159 0.084409237 2.3418409e-38
24.577795 41.082081 -0.011166096 2.3418409e-38
24.431398 41.139771 0.087123871 2.3418409e-38
24.572317 41.067902 -0.011031628 2.3418409e-38
24.432856 41.122505 0.08981967 2.3418409e-38
24.55876 41.053516 -0.013602734 2.3418409e-38
24.42971 41.103687 0.091263771 2.3418409e-38
24.551239 41.038994 -0.014142275 2.3418409e-38
24.422037 41.08881 0.090771914 2.3418409e-38
24.541281 41.023197 -0.015346527 2.3418409e-38
24.415451 41.071301 0.090937376 2.3418409e-38
24.542664 41.005375 -0.012470722 2.3418409e-38
24.416759 41.053101 0.093641043 2.3418409e-38
24.402813 42.390594 0.21546423 2.3418409e-38
24.410154 42.281292 0.71539474 2.3418409e-38
24.403286 42.286926 0.87030375 2.3418409e-38
24.442127 42.593716 0.19217694 2.3418409e-38
24.44276 42.569962 0.19622612 2.3418409e-38
24.43763 42.551346 0.19804931 2.3418409e-38
24.432945 42.529758 0.20044613 2.3418409e-38
24.415098 42.544495 0.52347279 2.3418409e-38
24.429398 42.53709 0.68830276 2.3418409e-38
24.433844 42.535919 0.84854972 2.3418409e-38
24.400875 42.53524 1.0032678 2.3418409e-38
24.411734 42.530014 1.1623106 2.3418409e-38
24.428955 42.509148 0.2028327 2.3418409e-38
24.42952 42.488449 0.20630598 2.3418409e-38
24.423437 42.467911 0.20814812 2.3418409e-38
24.418636 42.449314 0.20997 2.3418409e-38
24.411657 42.430748 0.21124816 2.3418409e-38
24.416225 42.405167 0.2164005 2.3418409e-38
24.41634 42.7953 -0.01854372 2.3418409e-38
24.452662 42.724434 0.17288733 2.3418409e-38
24.446585 42.70985 0.66979206 2.3418409e-38
24.452301 42.707722 0.83227897 2.3418409e-38
24.423489 42.707584 0.98946881 2.3418409e-38
24.441469 42.687057 0.17653787 2.3418409e-38
24.403637 42.71566 0.49768698 2.3418409e-38
24.420696 42.685875 1.1501597 2.3418409e-38
24.445913 42.659027 0.18226218 2.3418409e-38
24.441467 42.638344 0.18465078 2.3418409e-38
24.414288 42.644318 1.3104327 2.3418409e-38
24.440317 42.61557 0.18814719 2.3418409e-38
24.404003 42.606628 1.3121688 2.3418409e-38
24.573208 42.995956 -0.017158031 2.3418409e-38
24.561325 42.979862 -0.01698494 2.3418409e-38
24.549337 42.966751 -0.017431259 2.3418409e-38
24.53685 42.949635 -0.017247915 2.3418409e-38
24.526653 42.932316 -0.016475201 2.3418409e-38
24.436478 42.987576 1.1253902 2.3418409e-38
24.503912 42.926868 -0.021115541 2.3418409e-38
24.464661 42.962139 0.64023769 2.3418409e-38
24.460201 42.967087 0.80348623 2.3418409e-38
24.433632 42.963196 1.1272681 2.3418409e-38
24.496218 42.906292 -0.019133806 2.3418409e-38
24.402781 42.978104 0.46005619 2.3418409e-38
24.444235 42.950413 0.63832688 2.3418409e-38
24.446133 42.950817 0.80329823 2.3418409e-38
24.412687 42.952908 0.96320081 2.3418409e-38
24.409634 42.956799 1.1251792 2.3418409e-38
24.411316 42.957329 1.2869995 2.3418409e-38
24.480606 42.89423 -0.02076745 2.3418409e-38
24.469706 42.878822 -0.020603418 2.3418409e-38
24.459059 42.860367 -0.019819975 2.3418409e-38
24.425186 42.873459 1.2945986 2.3418409e-38
24.444441 42.846104 -0.020843506 2.3418409e-38
24.423218 42.853214 1.2959311 2.3418409e-38
24.432774 42.832649 -0.021288157 2.3418409e-38
24.416033 42.832314 1.2968233 2.3418409e-38
24.425434 42.811932 -0.019306898 2.3418409e-38
24.428553 42.813381 0.32083952 2.3418409e-38
24.421455 42.804031 1.1400139 2.3418409e-38
24.43907 43.16048 1.2738707 2.3418409e-38
24.582775 43.015232 -0.018539906 2.3418409e-38
24.449579 43.10146 1.279422 2.3418409e-38
24.463137 43.055416 0.28937602 2.3418409e-38
24.459614 43.059826 0.45872879 2.3418409e-38
24.447567 43.053452 1.1206412 2.3418409e-38
24.444365 43.057529 1.2823521 2.3418409e-38
24.445351 43.003273 1.1249528 2.3418409e-38
24.41684 43.014904 0.28632474 2.3418409e-38
24.472437 43.340828 1.2625327 2.3418409e-38
24.483236 43.321251 0.24916089 2.3418409e-38
24.476307 43.307991 1.1001043 2.3418409e-38
24.447552 43.305782 1.2631383 2.3418409e-38
24.413534 43.324806 0.58259213 2.3418409e-38
24.428478 43.31509 0.75671279 2.3418409e-38
24.465574 43.239189 1.1054323 2.3418409e-38
24.489464 43.217285 0.77765369 2.3418409e-38
24.468021 43.21106 0.94307661 2.3418409e-38
24.458462 43.220131 1.1064475 2.3418409e-38
24.414103 43.24469 0.24800336 2.3418409e-38
24.428518 43.235619 0.42652023 2.3418409e-38
24.465364 43.209446 0.60704339 2.3418409e-38
24.450678 43.200096 1.1074728 2.3418409e-38
24.505852 43.594223 0.20634639 2.3418409e-38
24.507069 43.565563 0.2116394 2.3418409e-38
24.523441 43.553917 0.39408767 2.3418409e-38
24.513464 43.564144 0.56490803 2.3418409e-38
24.503777 43.550354 1.0796705 2.3418409e-38
24.48605 43.555424 0.2092644 2.3418409e-38
24.480526 43.543926 1.2466872 2.3418409e-38
24.485962 43.528019 0.21404552 2.3418409e-38
24.493477 43.494541 0.22138095 2.3418409e-38
24.480352 43.490723 1.0830214 2.3418409e-38
24.478563 43.463413 1.0854759 2.3418409e-38
24.44544 43.484531 0.56538153 2.3418409e-38
24.455307 43.478458 0.7401098 2.3418409e-38
24.439657 43.465782 0.91160774 2.3418409e-38
24.536966 43.796368 1.0586299 2.3418409e-38
24.546597 43.778011 0.18141091 2.3418409e-38
24.519764 43.786358 1.2297144 2.3418409e-38
24.541979 43.755165 0.18465185 2.3418409e-38
24.521347 43.754463 1.0612524 2.3418409e-38
24.539541 43.728844 0.18892586 2.3418409e-38
24.536182 43.733765 0.36722243 2.3418409e-38
24.545181 43.727947 0.54600191 2.3418409e-38
24.529272 43.743698 0.7162168 2.3418409e-38
24.509586 43.734245 0.88972628 2.3418409e-38
24.516233 43.730442 1.0631354 2.3418409e-38
24.431438 43.79155 -0.026982069 2.3418409e-38
24.534281 43.705074 0.1921767 2.3418409e-38
24.424706 43.77198 -0.02459383 2.3418409e-38
24.53516 43.679451 0.19693971 2.3418409e-38
24.49733 43.693634 1.235657 2.3418409e-38
24.409687 43.754467 -0.024398088 2.3418409e-38
24.523384 43.659775 0.19815445 2.3418409e-38
24.5243 43.631039 0.20344925 2.3418409e-38
24.512018 43.613548 0.2041415 2.3418409e-38
24.593857 43.994648 0.15061438 2.3418409e-38
24.587559 43.97076 0.15386963 2.3418409e-38
24.56086 43.997372 0.32764614 2.3418409e-38
24.56617 43.994549 0.50925183 2.3418409e-38
24.570387 43.992702 0.68849981 2.3418409e-38
24.54681 43.986618 0.86452591 2.3418409e-38
24.552948 43.983002 1.041194 2.3418409e-38
24.562792 43.963825 0.15046906 2.3418409e-38
24.537399 43.989101 0.32503057 2.3418409e-38
24.542677 43.986336 0.50690782 2.3418409e-38
24.513031 43.987679 0.86042345 2.3418409e-38
24.527908 43.976154 1.039391 2.3418409e-38
24.570601 43.92514 -0.024153471 2.3418409e-38
24.543747 43.951591 0.14911699 2.3418409e-38
24.498922 43.996426 0.49866629 2.3418409e-38
24.494051 43.977169 1.0358857 2.3418409e-38
24.519445 43.956192 1.2150979 2.3418409e-38
24.554533 43.91032 -0.024527311 2.3418409e-38
24.534775 43.930222 0.15134835 2.3418409e-38
24.544514 43.893501 -0.023252487 2.3418409e-38
24.547749 43.89267 0.16072333 2.3418409e-38
24.527679 43.87764 -0.023614645 2.3418409e-38
24.552557 43.857525 0.16808224 2.3418409e-38
24.50626 43.870964 -0.026791573 2.3418409e-38
24.549944 43.834286 0.17182553 2.3418409e-38
24.499578 43.846088 -0.023258209 2.3418409e-38
24.55069 43.803101 0.17764735 2.3418409e-38
24.53406 43.819798 0.3526988 2.3418409e-38
24.548634 43.808945 0.53452134 2.3418409e-38
24.547405 43.812008 0.70967317 2.3418409e-38
24.509678 43.818371 0.87996542 2.3418409e-38
24.476501 43.837364 -0.026412487 2.3418409e-38
24.460072 43.824467 -0.027351379 2.3418409e-38
24.444277 43.809288 -0.027723312 2.3418409e-38
24.540993 44.14325 1.2004956 2.3418409e-38
24.576389 44.071152 0.31776977 2.3418409e-38
24.584372 44.065765 0.5011245 2.3418409e-38
24.5741 44.077431 0.67743111 2.3418409e-38
24.559734 44.064491 0.85671508 2.3418409e-38
24.568617 44.058239 1.0349611 2.3418409e-38
24.577877 44.041439 0.32307768 2.3418409e-38
24.5788 44.042648 0.50382674 2.3418409e-38
24.58292 44.040859 0.68362093 2.3418409e-38
24.559181 44.034943 0.86019897 2.3418409e-38
24.571041 44.025974 1.0385542 2.3418409e-38
24.577183 44.01215 0.3279289 2.3418409e-38
24.579615 44.011959 0.50864661 2.3418409e-38
24.573723 44.019447 0.68530858 2.3418409e-38
24.555851 44.008106 0.86302233 2.3418409e-38
24.566324 44.000473 1.0407261 2.3418409e-38
24.48226 44.009495 0.31215143 2.3418409e-38
24.580055 44.381001 1.0019641 2.3418409e-38
24.565893 44.397171 1.179764 2.3418409e-38
24.591999 44.299423 0.46593678 2.3418409e-38
24.570591 44.29731 1.1891518 2.3418409e-38
24.541122 44.315445 0.26980364 2.3418409e-38
24.563656 44.295647 0.46232665 2.3418409e-38
24.55303 44.308132 0.64267921 2.3418409e-38
24.527128 44.307625 0.82340968 2.3418409e-38
24.552431 44.285175 1.0095203 2.3418409e-38
24.588959 44.558979 0.79910207 2.3418409e-38
24.593916 44.556061 0.98435128 2.3418409e-38
24.582085 44.559391 0.23355603 2.3418409e-38
24.585712 44.796848 0.95709956 2.3418409e-38
24.590761 44.782318 0.1948278 2.3418409e-38
24.590908 44.747852 0.20110142 2.3418409e-38
24.41954 44.790241 -0.034008265 2.3418409e-38
24.547243 44.664566 0.59130049 2.3418409e-38
24.523212 44.660046 0.77906406 2.3418409e-38
24.508606 44.677357 0.96307659 2.3418409e-38
24.549435 44.637337 1.1565049 2.3418409e-38
24.403345 44.774654 -0.033823729 2.3418409e-38
24.597389 44.945393 -0.033877611 2.3418409e-38
24.578419 44.930786 -0.034197569 2.3418409e-38
24.562103 44.913277 -0.033490658 2.3418409e-38
24.547157 44.894302 -0.032269955 2.3418409e-38
24.533304 44.876244 -0.031061172 2.3418409e-38
24.585476 44.822525 0.18668163 2.3418409e-38
24.573278 44.840275 0.56904554 2.3418409e-38
24.563759 44.818092 0.76337075 2.3418409e-38
24.514521 44.861431 -0.031380177 2.3418409e-38
24.50108 44.840931 -0.029646397 2.3418409e-38
24.47411 44.836803 -0.033568144 2.3418409e-38
24.459433 44.817608 -0.032346725 2.3418409e-38
24.439793 44.80159 -0.032653332 2.3418409e-38
24.796068 44.123512 -0.018852711 2.3418409e-38
24.783585 44.105385 -0.017558098 2.3418409e-38
24.761526 44.096607 -0.020164013 2.3418409e-38
24.760578 44.070873 -0.014990568 2.3418409e-38
24.75985 44.039764 -0.0086717606 2.3418409e-38
24.616962 44.148651 0.12598348 2.3418409e-38
24.622173 44.114967 0.13332915 2.3418409e-38
24.612593 44.093697 0.13556194 2.3418409e-38
24.600931 44.108932 0.49697268 2.3418409e-38
24.61577 44.060497 0.14240432 2.3418409e-38
24.605854 44.0415 0.14411342 2.3418409e-38
24.605913 44.013279 0.14940703 2.3418409e-38
24.603823 44.378834 0.2690649 2.3418409e-38
24.609493 44.375351 0.45652628 2.3418409e-38
24.616238 44.557266 0.23944545 2.3418409e-38
24.632278 44.542931 0.43304718 2.3418409e-38
24.631138 44.546307 0.61899078 2.3418409e-38
24.610094 44.661716 0.21971464 2.3418409e-38
24.655016 44.984104 -0.031865597 2.3418409e-38
24.663326 44.977215 0.17039251 2.3418409e-38
24.630527 44.977806 -0.03476572 2.3418409e-38
24.662201 44.944946 0.17619157 2.3418409e-38
24.614061 44.960434 -0.034059286 2.3418409e-38
24.661484 44.910347 0.18246925 2.3418409e-38
24.650187 44.889679 0.18452179 2.3418409e-38
24.6597 44.881538 0.3815521 2.3418409e-38
24.648685 44.895992 0.57017505 2.3418409e-38
24.609945 44.90797 0.94692647 2.3418409e-38
24.63269 44.873798 0.18471336 2.3418409e-38
24.62182 44.850712 0.18724513 2.3418409e-38
24.628202 44.809052 0.19586015 2.3418409e-38
24.793053 45.111687 -0.034914255 2.3418409e-38
