# .PCD v0.7 - Point Cloud Data file format
VERSION 0.7
FIELDS x y z rgb
SIZE 4 4 4 4
TYPE F F F F
COUNT 1 1 1 1
WIDTH 53
HEIGHT 1
VIEWPOINT 0 0 0 1 0 0 0
POINTS 53
DATA ascii
37.102127 17.01729 1.1755464 2.3418409e-38
37.13649 17.122629 0.64311278 2.3418409e-38
37.120796 17.180952 1.1811413 2.3418409e-38
37.051262 17.373749 0.12890017 2.3418409e-38
37.154522 17.298719 0.65292239 2.3418409e-38
37.138577 17.357164 1.1871965 2.3418409e-38
37.106644 17.433878 0.13193023 2.3418409e-38
37.136635 17.531988 0.13883102 2.3418409e-38
37.162144 17.465269 0.66242814 2.3418409e-38
37.149132 17.514357 1.1926866 2.3418409e-38
37.158394 17.677946 0.14983249 2.3418409e-38
37.174492 17.639889 0.67227006 2.3418409e-38
37.161903 17.687218 1.1986939 2.3418409e-38
37.179207 17.836418 0.16185057 2.3418409e-38
37.19149 17.80998 0.68171334 2.3418409e-38
37.179966 17.853643 1.2043617 2.3418409e-38
37.182945 18.006121 0.17532575 2.3418409e-38
37.18996 18.004862 1.2096225 2.3418409e-38
37.197659 18.165026 0.18754828 2.3418409e-38
37.216415 18.321333 0.19940567 2.3418409e-38
37.237202 18.271202 0.70725095 2.3418409e-38
37.222477 18.322752 1.2204399 2.3418409e-38
37.219162 18.497572 0.21338856 2.3418409e-38
37.250591 18.417635 0.71536422 2.3418409e-38
37.238319 18.461752 1.2251267 2.3418409e-38
37.258541 18.57715 0.72436762 2.3418409e-38
37.234322 18.636116 0.22391665 2.3418409e-38
37.250095 18.610088 1.2302182 2.3418409e-38
37.253124 18.784618 0.23509407 2.3418409e-38
37.270031 18.746603 0.73383594 2.3418409e-38
37.26749 18.762747 1.2353476 2.3418409e-38
37.259102 18.922338 0.24584734 2.3418409e-38
37.284164 18.862041 0.74010491 2.3418409e-38
37.270657 18.908354 1.2404922 2.3418409e-38
37.286556 19.042589 0.25443554 2.3418409e-38
37.304897 19.001278 0.74755251 2.3418409e-38
37.291878 19.045799 1.2449858 2.3418409e-38
37.320206 19.133492 0.26045251 2.3418409e-38
37.319984 19.142912 0.7552799 2.3418409e-38
37.310921 19.176275 1.2492642 2.3418409e-38
37.364502 19.183912 0.26285756 2.3418409e-38
37.32251 19.305626 0.76455605 2.3418409e-38
37.320942 19.318523 1.2541319 2.3418409e-38
37.342316 19.430235 0.77114892 2.3418409e-38
37.335041 19.458208 1.2588193 2.3418409e-38
37.357346 19.55537 0.77789426 2.3418409e-38
37.344994 19.596519 1.2635328 2.3418409e-38
37.367989 19.700369 0.78588939 2.3418409e-38
37.360443 19.72855 1.2679046 2.3418409e-38
37.383575 19.830355 0.79287231 2.3418409e-38
37.375889 19.858633 1.2721992 2.3418409e-38
37.399609 19.96714 0.80021727 2.3418409e-38
37.394672 19.988068 1.2763938 2.3418409e-38
