# .PCD v0.7 - Point Cloud Data file format
VERSION 0.7
FIELDS x y z rgb
SIZE 4 4 4 4
TYPE F F F F
COUNT 1 1 1 1
WIDTH 1076
HEIGHT 1
VIEWPOINT 0 0 0 1 0 0 0
POINTS 1076
DATA ascii
37.874062 36.926579 -0.043936729 2.3509886e-38
37.872288 36.950542 -0.042098522 2.3509886e-38
37.879803 36.972073 -0.042806149 2.3509886e-38
37.887955 36.996387 -0.043539047 2.3509886e-38
37.891594 37.018913 -0.043228149 2.3509886e-38
37.831356 37.069496 1.3348796 2.3509886e-38
37.900803 37.040047 -0.044445753 2.3509886e-38
37.906864 37.064899 -0.044668674 2.3509886e-38
37.912189 37.087009 -0.0448668 2.3509886e-38
37.91745 37.109131 -0.045064926 2.3509886e-38
37.921417 37.13448 -0.04477787 2.3509886e-38
37.922779 37.157505 -0.043956757 2.3509886e-38
37.930042 37.180611 -0.044676304 2.3509886e-38
37.936932 37.202354 -0.045383692 2.3509886e-38
37.944065 37.225513 -0.046103477 2.3509886e-38
37.939499 37.249805 -0.04375124 2.3509886e-38
37.954353 37.272728 -0.046523094 2.3509886e-38
37.960987 37.294563 -0.047230244 2.3509886e-38
37.963776 37.317223 -0.0469172 2.3509886e-38
37.970287 37.339092 -0.04762435 2.3509886e-38
37.975128 37.36277 -0.047833443 2.3509886e-38
37.976109 37.38723 -0.047022104 2.3509886e-38
37.975391 37.413448 -0.045712471 2.3509886e-38
37.975407 37.433704 -0.044863462 2.3509886e-38
37.993843 37.469898 1.514457 2.3509886e-38
37.976437 37.459526 -0.04406333 2.3509886e-38
37.910378 37.511623 1.5206971 2.3509886e-38
37.986881 37.483532 -0.045814991 2.3509886e-38
37.818375 37.551533 1.5275404 2.3509886e-38
37.996738 37.504795 -0.047542095 2.3509886e-38
37.997032 37.527855 -0.046717167 2.3509886e-38
37.995602 37.552643 -0.04539299 2.3509886e-38
37.809135 39.29541 1.5229323 2.3509886e-38
37.807339 39.339027 1.5225854 2.3509886e-38
37.828201 39.363213 1.5207798 2.3509886e-38
37.856888 39.38929 1.5183728 2.3509886e-38
37.877743 39.411007 1.5165873 2.3509886e-38
37.910328 39.436253 1.5138938 2.3509886e-38
37.962933 39.762039 1.1292536 2.3509886e-38
37.944065 39.782578 0.94251978 2.3509886e-38
37.946785 39.784306 1.1307573 2.3509886e-38
37.829296 39.796131 0.9586885 2.3509886e-38
37.944256 39.809277 1.1305642 2.3509886e-38
37.853771 39.817959 0.76685965 2.3509886e-38
37.809444 39.814785 0.96111369 2.3509886e-38
37.942089 39.830082 1.1304034 2.3509886e-38
37.870739 39.844749 0.76333904 2.3509886e-38
37.802879 39.838905 0.96149862 2.3509886e-38
37.957184 39.856953 1.1280406 2.3509886e-38
37.834843 39.864433 0.76882076 2.3509886e-38
37.853447 39.867935 0.95356619 2.3509886e-38
37.921036 39.876854 1.1319585 2.3509886e-38
37.819656 39.884941 0.95800364 2.3509886e-38
37.928558 39.898712 1.1305928 2.3509886e-38
37.86705 39.912521 0.76215482 2.3509886e-38
37.836628 39.910431 0.95495248 2.3509886e-38
37.943581 39.924309 1.1282408 2.3509886e-38
37.85532 39.937641 0.95160306 2.3509886e-38
37.920898 39.946911 1.1304622 2.3509886e-38
37.829071 39.956703 0.95488298 2.3509886e-38
37.924114 39.969761 1.1295686 2.3509886e-38
37.830269 39.979061 0.9541409 2.3509886e-38
37.978485 39.999046 1.1223991 2.3509886e-38
37.805706 39.999538 0.95712531 2.3509886e-38
38.099567 36.418198 1.0975442 2.3509886e-38
38.080204 36.449207 1.1006149 2.3509886e-38
38.049358 36.483643 1.1050929 2.3509886e-38
38.053402 36.510124 1.1053284 2.3509886e-38
38.10968 36.517517 1.0990264 2.3509886e-38
38.067139 36.555161 1.1049142 2.3509886e-38
38.096886 39.600426 -0.061840773 2.3509886e-38
38.097054 39.623203 -0.062532663 2.3509886e-38
38.089222 39.648201 -0.061187744 2.3509886e-38
38.087212 39.672218 -0.06137538 2.3509886e-38
38.092957 39.695484 -0.063610077 2.3509886e-38
38.090805 39.719513 -0.063796997 2.3509886e-38
38.119255 39.754112 1.1106364 2.3509886e-38
38.090637 39.742302 -0.064487696 2.3509886e-38
38.078865 39.764004 -0.062088966 2.3509886e-38
38.082283 39.788555 -0.063819408 2.3509886e-38
38.079712 39.813969 -0.064016104 2.3509886e-38
38.092522 39.819881 0.53043854 2.3509886e-38
38.075584 39.834938 -0.063664436 2.3509886e-38
38.068829 39.838844 0.5344435 2.3509886e-38
38.080551 39.861145 -0.06592083 2.3509886e-38
38.093452 39.867134 0.52894151 2.3509886e-38
38.077908 39.885139 -0.066105843 2.3509886e-38
38.069756 39.905659 -0.064723253 2.3509886e-38
38.072742 39.930283 -0.06645298 2.3509886e-38
38.069725 39.955662 -0.066647768 2.3509886e-38
38.063141 39.977749 -0.0657897 2.3509886e-38
37.420631 20.224112 0.81424391 2.3477242e-38
37.416199 20.243395 1.2849625 2.3477242e-38
37.437099 20.344488 0.82060409 2.3477242e-38
37.42812 20.375004 1.2893505 2.3477242e-38
37.441498 20.48387 0.82838809 2.3477242e-38
37.442806 20.488531 1.2930365 2.3477242e-38
37.557285 20.514778 0.36044252 2.3477242e-38
37.453636 20.611479 0.83526337 2.3477242e-38
37.454872 20.616262 1.297269 2.3477242e-38
37.474308 20.725521 0.84110153 2.3477242e-38
37.473213 20.735956 1.3010783 2.3477242e-38
37.553417 20.670446 0.37275779 2.3477242e-38
37.4842 20.846123 0.84762275 2.3477242e-38
37.479214 20.865902 1.305501 2.3477242e-38
37.488117 20.979536 0.85503852 2.3477242e-38
37.490681 20.980974 1.3092792 2.3477242e-38
37.506039 21.086525 0.86052525 2.3477242e-38
37.503143 21.100964 1.3132004 2.3477242e-38
37.510967 21.205545 0.86707723 2.3477242e-38
37.507202 21.221924 1.3173301 2.3477242e-38
37.522228 21.333918 0.87394929 2.3477242e-38
37.52462 21.335693 1.3209113 2.3477242e-38
37.538361 21.440695 0.87944412 2.3477242e-38
37.538338 21.448076 1.3245169 2.3477242e-38
37.549965 21.556568 0.88557923 2.3477242e-38
37.549862 21.564053 1.3282876 2.3477242e-38
37.554268 21.662907 0.89139903 2.3477242e-38
37.554897 21.668655 1.3318011 2.3477242e-38
37.568302 21.786728 0.89787948 2.3477242e-38
37.570465 21.788931 1.3356155 2.3477242e-38
37.575333 21.892387 0.90355563 2.3477242e-38
37.578247 21.892862 1.3390313 2.3477242e-38
37.587791 22.000614 0.90919137 2.3477242e-38
37.589844 22.003017 1.3425696 2.3477242e-38
37.598526 22.11919 0.915447 2.3477242e-38
37.608883 22.213684 0.92036438 2.3477242e-38
37.610821 22.216284 1.3494313 2.3477242e-38
37.615082 22.33934 0.92713714 2.3477242e-38
37.621941 22.33115 1.3531191 2.3477242e-38
37.702164 22.265636 0.49009681 2.3477242e-38
37.629829 22.429573 0.93165493 2.3477242e-38
37.636669 22.421476 1.355875 2.3477242e-38
37.637413 22.534241 0.93719757 2.3477242e-38
37.640018 22.535322 1.3596923 2.3477242e-38
37.684479 22.553991 0.51290596 2.3477242e-38
37.644791 22.645584 0.94310546 2.3477242e-38
37.649033 22.643148 1.3631654 2.3477242e-38
37.690212 22.675562 0.52193296 2.3477242e-38
37.65781 22.75094 0.94848347 2.3477242e-38
37.665421 22.741375 1.3661306 2.3477242e-38
37.69532 22.774973 0.52928412 2.3477242e-38
37.623226 22.811104 0.11252689 2.3477242e-38
37.633183 22.899387 0.12060344 2.3477242e-38
37.662651 22.850395 0.95379913 2.3477242e-38
37.670235 22.840937 1.3694062 2.3477242e-38
37.703869 22.880581 0.53694427 2.3477242e-38
37.672623 22.952442 0.95907533 2.3477242e-38
37.681049 22.94129 1.3725607 2.3477242e-38
37.712719 22.984304 0.54443264 2.3477242e-38
37.641457 23.004633 0.13040733 2.3477242e-38
37.652618 23.102619 0.13933039 2.3477242e-38
37.684658 23.049011 0.96396995 2.3477242e-38
37.692204 23.039764 1.3756359 2.3477242e-38
37.722599 23.077625 0.55107284 2.3477242e-38
37.694294 23.142372 0.96875978 2.3477242e-38
37.69833 23.140415 1.3788979 2.3477242e-38
37.735653 23.170439 0.55751979 2.3477242e-38
37.659649 23.200983 0.1484977 2.3477242e-38
37.665436 23.307743 0.15853047 2.3477242e-38
37.703587 23.242384 0.97391546 2.3477242e-38
37.707581 23.240524 1.3820601 2.3477242e-38
37.744804 23.27705 0.56516969 2.3477242e-38
37.717731 23.338287 0.97866833 2.3477242e-38
37.723457 23.332932 1.3847948 2.3477242e-38
37.751457 23.373718 0.57216561 2.3477242e-38
37.678646 23.405039 0.16721964 2.3477242e-38
37.688564 23.494232 0.17528903 2.3477242e-38
37.721485 23.440365 0.98410618 2.3477242e-38
37.729839 23.429743 1.3879008 2.3477242e-38
37.690941 23.597586 0.1851294 2.3477242e-38
37.759415 23.466734 0.57881522 2.3477242e-38
37.726517 23.538769 0.98929012 2.3477242e-38
37.733955 23.530041 1.3911729 2.3477242e-38
37.769611 23.567724 0.5859493 2.3477242e-38
37.708862 23.682213 0.19227815 2.3477242e-38
37.737312 23.637997 0.99430716 2.3477242e-38
37.744728 23.629375 1.3942425 2.3477242e-38
37.709373 23.780487 0.20170164 2.3477242e-38
37.772125 23.662773 0.59297347 2.3477242e-38
37.743183 23.725964 0.99887502 2.3477242e-38
37.747868 23.72278 1.3972945 2.3477242e-38
37.777702 23.763996 0.6003083 2.3477242e-38
37.724632 23.861874 0.20865381 2.3477242e-38
37.750313 23.823669 1.0039177 2.3477242e-38
37.758598 23.813465 1.4000618 2.3477242e-38
37.747658 23.927309 0.21361649 2.3477242e-38
37.787304 23.856255 0.60677218 2.3477242e-38
37.758762 23.917736 1.0087061 2.3477242e-38
37.766113 23.909407 1.4030774 2.3477242e-38
37.777798 23.97197 0.21616638 2.3477242e-38
37.794716 23.945307 0.6130842 2.3477242e-38
37.761349 24.015678 1.0139025 2.3477242e-38
37.769592 24.005678 1.4061981 2.3477242e-38
37.79985 24.037815 0.61974776 2.3477242e-38
37.774529 24.092279 1.0175595 2.3477242e-38
37.779064 24.089449 1.4087465 2.3477242e-38
37.783428 24.182566 1.0220979 2.3477242e-38
37.78421 24.186897 1.4118516 2.3477242e-38
37.789062 24.278067 1.0270241 2.3477242e-38
37.791653 24.278946 1.4147128 2.3477242e-38
37.797012 24.368185 1.0315673 2.3477242e-38
37.799557 24.369144 1.4174941 2.3477242e-38
37.846581 24.050491 0.21969712 2.3477242e-38
37.804344 24.136887 0.62691796 2.3477242e-38
37.874134 24.105488 0.22333431 2.3477242e-38
37.905167 24.1535 0.22608614 2.3477242e-38
37.945377 24.184046 0.22662342 2.3477242e-38
37.813911 24.225288 0.63304186 2.3477242e-38
37.819275 24.320648 0.63986742 2.3477242e-38
37.979122 24.220303 0.22806716 2.3477242e-38
37.832615 24.400108 0.64512098 2.3477242e-38
37.806389 24.454704 1.0358552 2.3477242e-38
37.80983 24.453978 1.4200308 2.3477242e-38
37.835449 24.49217 0.6517967 2.3477242e-38
37.809948 24.545052 1.0405515 2.3477242e-38
37.808594 24.5532 1.423331 2.3477242e-38
37.841301 24.583755 0.65827942 2.3477242e-38
37.814617 24.638424 1.0453591 2.3477242e-38
37.817966 24.637867 1.4258722 2.3477242e-38
37.845718 24.676992 0.66494 2.3477242e-38
37.823601 24.722942 1.0495253 2.3477242e-38
37.825947 24.724213 1.4284981 2.3477242e-38
37.85294 24.758289 0.67057216 2.3477242e-38
37.829674 24.806021 1.0537136 2.3477242e-38
37.82618 24.817862 1.4315586 2.3477242e-38
37.859341 24.846111 0.67671192 2.3477242e-38
37.833927 24.897369 1.0583994 2.3477242e-38
37.836174 24.898792 1.4339416 2.3477242e-38
37.870659 24.930008 0.68230855 2.3477242e-38
37.845028 24.981277 1.0624235 2.3477242e-38
37.844299 24.988003 1.4366369 2.3477242e-38
37.872742 25.018023 0.68864799 2.3477242e-38
37.850815 25.062374 1.0664892 2.3477242e-38
37.848068 25.072641 1.439292 2.3477242e-38
37.877861 25.094164 0.69395792 2.3477242e-38
37.853794 25.142019 1.0705769 2.3477242e-38
37.849007 25.155823 1.4419688 2.3477242e-38
37.885921 25.18129 0.69991171 2.3477242e-38
37.863621 25.225702 1.0746073 2.3477242e-38
37.856766 25.243023 1.4445887 2.3477242e-38
37.889717 25.263844 0.70573187 2.3477242e-38
37.869217 25.304832 1.0785501 2.3477242e-38
37.860279 25.325659 1.4471674 2.3477242e-38
37.897491 25.344242 0.71118379 2.3477242e-38
37.874809 25.388714 1.0827335 2.3477242e-38
37.876778 25.390554 1.4488184 2.3477242e-38
37.905857 25.422842 0.71646214 2.3477242e-38
37.886002 25.462162 1.0861443 2.3477242e-38
37.883904 25.470966 1.451216 2.3477242e-38
37.909458 25.503426 0.72211337 2.3477242e-38
37.893471 25.535896 1.0897057 2.3477242e-38
37.885242 25.555096 1.4538838 2.3477242e-38
37.916023 25.583591 0.72757137 2.3477242e-38
37.899879 25.616108 1.093637 2.3477242e-38
37.8946 25.630177 1.456037 2.3477242e-38
37.924221 25.66025 0.73268032 2.3477242e-38
37.906902 25.694519 1.097441 2.3477242e-38
37.899498 25.712067 1.4585238 2.3477242e-38
37.929718 25.735455 0.73781073 2.3477242e-38
37.911224 25.771471 1.1012666 2.3477242e-38
37.903732 25.789059 1.4608662 2.3477242e-38
37.938187 25.810263 0.74274814 2.3477242e-38
37.916443 25.851437 1.1052043 2.3477242e-38
37.910915 25.865637 1.4631083 2.3477242e-38
37.947311 25.883301 0.74751151 2.3477242e-38
37.926426 25.922781 1.1084969 2.3477242e-38
37.914608 25.947269 1.4656014 2.3477242e-38
37.948616 25.96339 0.75317478 2.3477242e-38
37.928596 26.001204 1.1124578 2.3477242e-38
37.921867 26.017189 1.4676178 2.3477242e-38
37.954742 26.034897 0.75796151 2.3477242e-38
37.932476 26.076134 1.1161618 2.3477242e-38
37.928799 26.087048 1.4696357 2.3477242e-38
37.959641 26.11281 0.76325798 2.3477242e-38
37.941387 26.147276 1.11946 2.3477242e-38
37.932388 26.166729 1.4720519 2.3477242e-38
37.967304 26.185562 0.76802897 2.3477242e-38
37.82299 26.239773 0.073137045 2.3477242e-38
37.849319 26.281612 0.07576561 2.3477242e-38
37.884876 26.308346 0.075978041 2.3477242e-38
37.949947 26.218357 1.1227599 2.3477242e-38
37.9398 26.239529 1.4741373 2.3477242e-38
37.910889 26.3503 0.078606367 2.3477242e-38
37.974606 26.258245 0.77280188 2.3477242e-38
37.958157 26.289375 1.1260616 2.3477242e-38
37.951092 26.305485 1.4758916 2.3477242e-38
37.932499 26.399006 0.082309723 2.3477242e-38
37.980484 26.332544 0.77775252 2.3477242e-38
37.960693 26.368773 1.1300132 2.3477242e-38
37.955666 26.381538 1.4781473 2.3477242e-38
37.986931 26.395563 0.78186345 2.3477242e-38
37.951637 26.441603 0.085514784 2.3477242e-38
37.963795 26.436863 1.133357 2.3477242e-38
37.958694 26.449667 1.4801933 2.3477242e-38
37.966492 26.505104 0.091348886 2.3477242e-38
37.994308 26.471115 0.78679883 2.3477242e-38
37.973129 26.509056 1.1366451 2.3477242e-38
37.969032 26.52021 1.4821002 2.3477242e-38
37.971367 26.578854 0.099084616 2.3477242e-38
37.979923 26.579792 1.1399541 2.3477242e-38
37.975754 26.590984 1.4841114 2.3477242e-38
37.976948 26.646133 0.10603511 2.3477242e-38
37.984215 26.649063 1.1432841 2.3477242e-38
37.981064 26.658615 1.4860601 2.3477242e-38
37.985439 26.713081 0.11269951 2.3477242e-38
37.991413 26.717983 1.1464669 2.3477242e-38
37.988197 26.727571 1.4879913 2.3477242e-38
37.992519 26.78163 0.11963451 2.3477242e-38
37.998276 26.791449 1.4896737 2.3477242e-38
38.006802 26.609421 0.79585183 2.3477242e-38
38.017426 26.673326 0.79975486 2.3477242e-38
38.026653 26.738853 0.80383563 2.3477242e-38
38.004833 26.776821 1.1488719 2.3477242e-38
38.075867 26.733793 0.45383739 2.3477242e-38
38.097912 26.779366 0.4564091 2.3477242e-38
38.031242 26.80625 0.80828953 2.3477242e-38
38.008167 26.845894 1.1522067 2.3477242e-38
38.002632 26.858887 1.4916275 2.3477242e-38
38.001373 26.920431 0.1340661 2.3477242e-38
38.036537 26.876638 0.81290233 2.3477242e-38
38.014389 26.914625 1.1553946 2.3477242e-38
38.012093 26.922653 1.4933128 2.3477242e-38
38.01075 26.983818 0.1401993 2.3477242e-38
38.102112 26.851414 0.46254718 2.3477242e-38
38.047009 26.938667 0.81663549 2.3477242e-38
38.02692 26.973326 1.1578038 2.3477242e-38
38.014587 26.996338 1.495502 2.3477242e-38
38.081821 26.950262 0.47273779 2.3477242e-38
38.051888 26.999489 0.82058418 2.3477242e-38
38.012337 27.049295 0.14717889 2.3477242e-38
38.032776 27.032503 1.1605122 2.3477242e-38
38.023693 27.050545 1.4968935 2.3477242e-38
38.022072 27.115612 0.15356576 2.3477242e-38
38.075104 27.041615 0.48131418 2.3477242e-38
38.059406 27.069429 0.82500684 2.3477242e-38
38.035667 27.109068 1.1642067 2.3477242e-38
38.032078 27.118858 1.4987324 2.3477242e-38
38.024956 27.187027 0.16104889 2.3477242e-38
38.082581 27.106739 0.48656738 2.3477242e-38
38.068977 27.131302 0.82874441 2.3477242e-38
38.049564 27.164326 1.1663599 2.3477242e-38
38.090862 27.170162 0.49159932 2.3477242e-38
38.078247 27.193123 0.83248341 2.3477242e-38
38.03196 27.25181 0.16745806 2.3477242e-38
38.056442 27.229445 1.1692955 2.3477242e-38
38.034576 27.313721 0.17390597 2.3477242e-38
38.093613 27.232338 0.49689353 2.3477242e-38
38.085388 27.248789 0.83590841 2.3477242e-38
38.058918 27.291683 1.1722705 2.3477242e-38
38.041874 27.381409 0.1805687 2.3477242e-38
38.103348 27.297058 0.50190961 2.3477242e-38
38.091606 27.318478 0.84033799 2.3477242e-38
38.068356 27.356438 1.1750603 2.3477242e-38
38.1078 27.355843 0.50676048 2.3477242e-38
38.09594 27.377312 0.84411883 2.3477242e-38
38.045052 27.441555 0.18675053 2.3477242e-38
38.074829 27.411995 1.1775169 2.3477242e-38
38.060802 27.496124 0.19126225 2.3477242e-38
38.118061 27.418818 0.51155674 2.3477242e-38
38.10836 27.437069 0.84749162 2.3477242e-38
38.082516 27.478275 1.1804402 2.3477242e-38
38.066589 27.555954 0.19715893 2.3477242e-38
38.125134 27.477283 0.51616836 2.3477242e-38
38.114178 27.497211 0.85125673 2.3477242e-38
38.090473 27.535141 1.1828809 2.3477242e-38
38.136246 27.533875 0.52031612 2.3477242e-38
38.121719 27.558712 0.85500467 2.3477242e-38
38.096695 27.598259 1.1856956 2.3477242e-38
38.138496 27.594057 0.52539599 2.3477242e-38
38.07753 27.612286 0.20223045 2.3477242e-38
38.090012 27.657688 0.20599318 2.3477242e-38
38.126152 27.615696 0.85861444 2.3477242e-38
38.105621 27.648737 1.1877658 2.3477242e-38
38.120934 27.689621 0.20673668 2.3477242e-38
38.149895 27.653597 0.52975106 2.3477242e-38
38.136269 27.676888 0.86216962 2.3477242e-38
38.112099 27.714779 1.1906955 2.3477242e-38
38.1478 27.718784 0.20751739 2.3477242e-38
38.155907 27.711857 0.5343684 2.3477242e-38
38.140987 27.736799 0.86594057 2.3477242e-38
38.119003 27.771446 1.1931415 2.3477242e-38
38.184319 27.742855 0.20691288 2.3477242e-38
38.165569 27.772913 0.53894997 2.3477242e-38
38.151688 27.79627 0.86932194 2.3477242e-38
38.133072 27.826063 1.1951599 2.3477242e-38
38.17181 27.834093 0.54377496 2.3477242e-38
38.161324 27.852669 0.87254632 2.3477242e-38
38.139046 27.887283 1.1978514 2.3477242e-38
38.173885 27.892357 0.54863858 2.3477242e-38
38.163288 27.910982 0.87633991 2.3477242e-38
38.139687 27.947205 1.200712 2.3477242e-38
38.186226 27.94845 0.55255365 2.3477242e-38
38.173145 27.970306 0.87972558 2.3477242e-38
38.154144 28.000095 1.2026033 2.3477242e-38
38.194 28.006268 0.55693591 2.3477242e-38
38.180798 28.028154 0.88313115 2.3477242e-38
38.161663 28.05794 1.2050376 2.3477242e-38
38.186764 28.079906 0.88622022 2.3477242e-38
38.16272 28.116074 1.2077718 2.3477242e-38
38.193398 28.142267 0.88996446 2.3477242e-38
38.1716 28.17523 1.2101905 2.3477242e-38
38.178844 28.228298 1.2123854 2.3477242e-38
38.183434 28.284494 1.2148435 2.3477242e-38
38.198792 28.334 1.21648 2.3477242e-38
38.223484 27.759212 0.205248 2.3477242e-38
38.269283 27.758448 0.20119274 2.3477242e-38
38.30687 27.781315 0.20031595 2.3477242e-38
38.340073 27.80603 0.19999635 2.3477242e-38
38.201263 28.056398 0.56068528 2.3477242e-38
38.21043 28.115551 0.56505156 2.3477242e-38
38.217934 28.168621 0.56900859 2.3477242e-38
38.200775 28.195351 0.89303792 2.3477242e-38
38.223995 28.223225 0.57319057 2.3477242e-38
38.204292 28.253139 0.89664435 2.3477242e-38
38.231136 28.283806 0.57778502 2.3477242e-38
38.213707 28.310574 0.89986122 2.3477242e-38
38.241554 28.33201 0.581074 2.3477242e-38
38.244713 28.331985 0.89939058 2.3477242e-38
38.233402 28.350628 1.215663 2.3477242e-38
38.277374 28.347233 0.57966053 2.3477242e-38
38.273224 28.356636 0.89927435 2.3477242e-38
38.326679 28.352957 0.57641721 2.3477242e-38
38.299221 28.392105 0.90000832 2.3477242e-38
38.386681 28.341751 0.89137018 2.3477242e-38
38.364223 28.374296 1.2106764 2.3477242e-38
38.234913 28.409904 1.2183862 2.3477242e-38
38.273037 28.429552 1.217532 2.3477242e-38
38.365585 28.429173 0.57984149 2.3477242e-38
38.373386 28.42733 1.2127252 2.3477242e-38
38.366573 28.488354 0.58470154 2.3477242e-38
38.346119 28.518047 0.90532231 2.3477242e-38
38.254383 28.699997 1.231034 2.3477242e-38
38.34837 28.634258 0.59822047 2.3477242e-38
38.265064 28.741604 0.92479658 2.3477242e-38
38.24427 28.771265 1.234818 2.3477242e-38
38.288437 28.778463 0.92571437 2.3477242e-38
38.275085 28.798775 1.2346239 2.3477242e-38
38.328362 28.779846 0.30098629 2.3477242e-38
38.33934 28.770271 0.61016023 2.3477242e-38
38.275764 28.855949 1.2372277 2.3477242e-38
38.335075 28.833572 0.61570275 2.3477242e-38
38.362244 28.979977 0.62557006 2.3477242e-38
38.29969 29.002357 1.242792 2.3477242e-38
38.210793 29.153931 0.045232296 2.3477242e-38
38.301151 29.060734 1.2453833 2.3477242e-38
38.350071 29.107353 0.63689423 2.3477242e-38
38.222588 29.202486 0.049660444 2.3477242e-38
38.233727 29.23772 0.052577496 2.3477242e-38
38.234913 29.298285 0.05954051 2.3477242e-38
38.244774 29.348248 0.064288139 2.3477242e-38
38.321136 29.273716 1.2540498 2.3477242e-38
38.24128 29.399906 0.070691347 2.3477242e-38
38.364376 29.271385 1.2518207 2.3477242e-38
38.388557 29.29393 0.34643114 2.3477242e-38
38.395252 29.28989 0.64803004 2.3477242e-38
38.317833 29.386757 1.2592846 2.3477242e-38
38.382172 29.359255 0.35344028 2.3477242e-38
38.374428 29.371838 0.65626872 2.3477242e-38
38.251984 29.44828 0.075124979 2.3477242e-38
38.25951 29.496677 0.079894066 2.3477242e-38
38.264221 29.548004 0.085298061 2.3477242e-38
38.375469 29.424454 0.36045182 2.3477242e-38
38.265762 29.599316 0.091037512 2.3477242e-38
38.375961 29.477654 0.36558628 2.3477242e-38
38.387405 29.524807 0.36906016 2.3477242e-38
38.35479 29.568884 0.97127962 2.3477242e-38
38.358456 29.568327 1.2653413 2.3477242e-38
38.388756 29.576405 0.37392604 2.3477242e-38
38.27034 29.65345 0.096743107 2.3477242e-38
38.277985 29.697252 0.10090029 2.3477242e-38
38.342255 29.639385 1.2692883 2.3477242e-38
38.282814 29.743969 0.10569239 2.3477242e-38
38.391209 29.626457 0.37852204 2.3477242e-38
38.392719 29.6838 0.38389766 2.3477242e-38
38.28273 29.802341 0.11235368 2.3477242e-38
38.288452 29.847481 0.11683106 2.3477242e-38
38.290001 29.896961 0.12226105 2.3477242e-38
38.357994 29.836391 1.277123 2.3477242e-38
38.295341 29.942009 0.12674081 2.3477242e-38
38.297813 29.989922 0.13185596 2.3477242e-38
38.398804 29.890816 0.98802161 2.3477242e-38
38.361649 29.93457 1.2811975 2.3477242e-38
38.307236 30.036331 0.13598585 2.3477242e-38
38.309715 30.089931 0.14170349 2.3477242e-38
38.311554 30.137676 0.14682233 2.3477242e-38
38.354706 30.1054 1.2889071 2.3477242e-38
38.317261 30.181051 0.15099001 2.3477242e-38
38.383926 30.179741 1.2905717 2.3477242e-38
38.463684 27.234531 1.8284533 2.3477242e-38
38.481319 27.274765 1.4898001 2.3477242e-38
38.46954 27.295473 1.8290063 2.3477242e-38
38.458954 27.314476 2.1642995 2.3477242e-38
38.505157 27.319242 1.490379 2.3477242e-38
38.494488 27.338303 1.829034 2.3477242e-38
38.489735 27.34919 2.1639078 2.3477242e-38
38.483936 27.3615 2.4982631 2.3477242e-38
38.52441 27.36549 1.4911463 2.3477242e-38
38.523132 27.371624 1.8288933 2.3477242e-38
38.523083 27.376041 2.1635704 2.3477242e-38
38.519623 27.385107 2.4979901 2.3477242e-38
38.548901 27.395893 1.4912779 2.3477242e-38
38.557098 27.389151 1.82849 2.3477242e-38
38.560608 27.388735 2.1633329 2.3477242e-38
38.553566 27.402618 2.4978657 2.3477242e-38
38.582916 27.426025 1.4910982 2.3477242e-38
38.537434 28.207924 0.2238673 2.3477242e-38
38.404636 28.383875 0.89300799 2.3477242e-38
38.562557 28.238029 0.22464657 2.3477242e-38
38.586975 28.272781 0.2259475 2.3477242e-38
38.421417 28.673523 0.91066635 2.3477242e-38
38.481182 28.651424 0.27392066 2.3477242e-38
38.43005 28.783821 1.2265152 2.3477242e-38
38.559528 28.677599 0.26925194 2.3477242e-38
38.474625 28.783882 0.60073638 2.3477242e-38
38.538029 28.765446 0.28003013 2.3477242e-38
38.43428 28.836401 0.92026246 2.3477242e-38
38.516575 28.856079 0.29106379 2.3477242e-38
38.415413 28.984222 0.93083727 2.3477242e-38
38.519577 28.902683 0.29540741 2.3477242e-38
38.514011 28.97332 0.30292761 2.3477242e-38
38.519348 28.978487 1.2310352 2.3477242e-38
38.467297 29.035954 0.93078935 2.3477242e-38
38.466896 29.092031 0.3191148 2.3477242e-38
38.506256 29.04977 0.61984122 2.3477242e-38
38.493347 29.068672 0.93117392 2.3477242e-38
38.440693 29.171392 0.32942188 2.3477242e-38
38.501713 29.170525 0.93700719 2.3477242e-38
38.482754 29.305508 0.64224625 2.3477242e-38
38.457493 29.338081 0.9503001 2.3477242e-38
38.494003 29.347153 0.64465618 2.3477242e-38
38.450191 29.400623 0.95465016 2.3477242e-38
38.427723 29.429779 1.2557511 2.3477242e-38
38.495262 29.406631 0.64928079 2.3477242e-38
38.469849 29.492607 0.95903635 2.3477242e-38
38.46777 29.544561 0.66243279 2.3477242e-38
38.516182 29.497766 1.2543247 2.3477242e-38
38.478043 29.596319 0.96485531 2.3477242e-38
38.571362 29.49642 1.2514865 2.3477242e-38
38.567013 29.554399 1.2542412 2.3477242e-38
38.445511 29.628798 0.67089033 2.3477242e-38
38.405357 29.721973 0.38632655 2.3477242e-38
38.50898 29.611202 0.66430044 2.3477242e-38
38.492199 29.633324 0.96617687 2.3477242e-38
38.420517 29.757217 0.3882134 2.3477242e-38
38.533791 29.636482 0.66423881 2.3477242e-38
38.416298 29.768959 0.97947061 2.3477242e-38
38.438225 29.789551 0.38955796 2.3477242e-38
38.513027 29.71859 1.2641269 2.3477242e-38
38.405666 29.83215 0.98401308 2.3477242e-38
38.423344 30.082352 1.2843828 2.3477242e-38
38.455124 30.649183 1.0288661 2.3477242e-38
38.517868 30.627121 0.17583847 2.3477242e-38
38.420143 30.732929 1.0361164 2.3477242e-38
38.442749 30.750778 0.75659299 2.3477242e-38
38.41732 30.782043 1.3138943 2.3477242e-38
38.51329 30.789299 1.3090264 2.3477242e-38
38.477337 30.866364 1.0396606 2.3477242e-38
38.439671 30.905659 1.3176956 2.3477242e-38
38.433025 31.049335 1.3238105 2.3477242e-38
38.483105 31.043251 0.77428937 2.3477242e-38
38.471554 31.057236 1.0507686 2.3477242e-38
38.447823 31.082586 1.3243251 2.3477242e-38
38.430283 31.148613 1.3278991 2.3477242e-38
38.49667 31.12199 0.7787137 2.3477242e-38
38.477665 31.142738 1.0550704 2.3477242e-38
38.45372 31.168003 1.3273787 2.3477242e-38
38.511208 31.155329 0.77978539 2.3477242e-38
38.52356 31.332027 1.0621041 2.3477242e-38
38.541267 31.398527 0.52451682 2.3477242e-38
38.48341 31.411236 1.3352073 2.3477242e-38
38.537766 31.407738 1.0651555 2.3477242e-38
38.406624 31.556858 0.015596628 2.3477242e-38
38.408325 31.594507 0.019729376 2.3477242e-38
38.501827 31.568886 1.0764271 2.3477242e-38
38.473816 31.596325 1.3428109 2.3477242e-38
38.422813 31.625986 0.021273613 2.3477242e-38
38.42363 31.671865 0.026453733 2.3477242e-38
38.472248 31.685873 1.3462768 2.3477242e-38
38.43063 31.707014 0.029476881 2.3477242e-38
38.52597 31.677616 0.81476116 2.3477242e-38
38.484806 31.718847 1.3468015 2.3477242e-38
38.4328 31.748749 0.033945084 2.3477242e-38
38.559956 31.68985 0.81244922 2.3477242e-38
38.43354 31.788958 0.038430691 2.3477242e-38
38.597904 31.785809 0.55068159 2.3477242e-38
38.446106 31.818924 0.039994478 2.3477242e-38
38.441795 31.865614 0.045927286 2.3477242e-38
38.52314 31.854382 1.0898298 2.3477242e-38
38.455078 31.89978 0.047824621 2.3477242e-38
38.587555 31.835247 0.55588531 2.3477242e-38
38.569046 31.856537 1.0864891 2.3477242e-38
38.452187 31.942341 0.053045034 2.3477242e-38
38.507206 31.956118 1.3542861 2.3477242e-38
38.462158 31.978996 0.055674791 2.3477242e-38
38.517689 31.975914 0.31309557 2.3477242e-38
38.546696 31.989487 0.31061161 2.3477242e-38
38.452866 32.026447 0.062359571 2.3477242e-38
38.521244 32.013256 0.57778478 2.3477242e-38
38.52425 32.052563 0.31958449 2.3477242e-38
38.550793 32.033817 0.5761205 2.3477242e-38
38.530975 32.089088 0.32218266 2.3477242e-38
38.572926 32.057987 0.57556677 2.3477242e-38
38.502373 32.123619 1.3606198 2.3477242e-38
38.564373 32.099075 0.3187393 2.3477242e-38
38.592583 32.079227 0.5750457 2.3477242e-38
38.591309 32.127472 0.83852684 2.3477242e-38
38.551117 32.203949 1.1054761 2.3477242e-38
38.409927 32.304962 0.099511385 2.3477242e-38
38.428925 32.325802 0.098903656 2.3477242e-38
38.583797 32.247368 0.33011413 2.3477242e-38
38.445549 32.353291 0.099361897 2.3477242e-38
38.595589 32.281681 0.33173931 2.3477242e-38
38.480278 32.368977 0.095777273 2.3477242e-38
38.532501 32.380375 1.3679187 2.3477242e-38
38.481644 32.405979 0.099545956 2.3477242e-38
38.552086 32.405727 1.3676431 2.3477242e-38
38.485565 32.443214 0.10293365 2.3477242e-38
38.491322 32.47654 0.10560536 2.3477242e-38
38.536377 32.493523 1.3715923 2.3477242e-38
38.501648 32.506264 0.10717916 2.3477242e-38
38.497337 32.54937 0.11240017 2.3477242e-38
38.504951 32.58559 0.11504197 2.3477242e-38
38.505478 32.62236 0.11881566 2.3477242e-38
38.550964 32.639069 1.3756623 2.3477242e-38
38.513752 32.653206 0.12075794 2.3477242e-38
38.51828 32.689049 0.12378418 2.3477242e-38
38.518902 32.723049 0.12720966 2.3477242e-38
38.519489 32.763802 0.13132107 2.3477242e-38
38.610229 27.402254 2.4984543 2.3477242e-38
38.630348 27.433931 1.4898388 2.3477242e-38
38.698956 27.405422 1.4868419 2.3477242e-38
38.770283 29.828215 1.5510898 2.3477242e-38
38.760548 29.841915 1.8485081 2.3477242e-38
38.765347 29.840385 2.1427348 2.3477242e-38
38.751598 29.858234 2.4364998 2.3477242e-38
38.739063 29.911797 1.5543447 2.3477242e-38
38.73756 29.916853 1.8496084 2.3477242e-38
38.734032 29.923983 2.14217 2.3477242e-38
38.750755 29.910072 2.4352007 2.3477242e-38
38.735413 29.969368 1.5559411 2.3477242e-38
38.739437 29.968685 1.8500173 2.3477242e-38
38.734493 29.977238 2.141737 2.3477242e-38
38.747093 29.967667 2.4337261 2.3477242e-38
38.768284 29.999386 2.4332073 2.3477242e-38
38.748222 30.009651 1.5565006 2.3477242e-38
38.748055 30.013283 1.8502285 2.3477242e-38
38.750065 30.014654 2.1413779 2.3477242e-38
38.761932 30.042587 1.5568366 2.3477242e-38
38.767349 30.040506 1.850078 2.3477242e-38
38.787628 30.026651 2.4327776 2.3477242e-38
38.784225 30.079494 1.8500729 2.3477242e-38
38.708607 31.78347 0.80488467 2.3477242e-38
38.639271 32.128174 0.57364643 2.3477242e-38
38.662842 32.143494 0.30991948 2.3477242e-38
38.629234 32.172955 0.57833004 2.3477242e-38
38.624496 32.218197 0.5824343 2.3477242e-38
38.644157 32.246563 0.58241224 2.3477242e-38
38.670959 32.228455 0.83742273 2.3477242e-38
38.625187 32.297249 0.32923698 2.3477242e-38
38.642609 32.286541 0.58571255 2.3477242e-38
38.67411 32.264893 0.83943927 2.3477242e-38
38.634056 32.331333 0.33119881 2.3477242e-38
38.673431 32.303753 0.58351374 2.3477242e-38
38.656273 32.319805 0.84463382 2.3477242e-38
38.621346 32.382298 0.59559059 2.3477242e-38
38.650688 32.395267 0.33483636 2.3477242e-38
38.649204 32.3992 0.59368348 2.3477242e-38
38.698128 32.364662 0.84342325 2.3477242e-38
38.714134 32.355263 1.1003208 2.3477242e-38
38.652901 32.434109 0.33808053 2.3477242e-38
38.632412 32.452446 0.59971476 2.3477242e-38
38.662407 32.469662 0.34002817 2.3477242e-38
38.644989 32.485573 0.60079288 2.3477242e-38
38.684475 32.458588 0.85061002 2.3477242e-38
38.664772 32.505733 0.34296989 2.3477242e-38
38.683723 32.494312 0.59696436 2.3477242e-38
38.724945 32.466202 0.84715044 2.3477242e-38
38.660667 32.546486 0.34719408 2.3477242e-38
38.716118 32.50795 0.59423232 2.3477242e-38
38.67815 32.573406 0.34723747 2.3477242e-38
38.667969 32.58918 1.1151268 2.3477242e-38
38.683781 32.604359 0.34923637 2.3477242e-38
38.687851 32.643345 0.35214841 2.3477242e-38
38.748344 32.601845 0.59753132 2.3477242e-38
38.679489 32.688904 0.35732162 2.3477242e-38
38.756039 32.635998 0.59917533 2.3477242e-38
38.689041 32.718967 0.35866487 2.3477242e-38
38.601189 32.787842 0.87890649 2.3477242e-38
38.664307 32.77589 0.36704743 2.3477242e-38
38.688038 32.795536 0.36550605 2.3477242e-38
38.631557 32.802109 0.62611222 2.3477242e-38
38.626007 32.808769 0.87771845 2.3477242e-38
38.628723 32.809502 1.1285317 2.3477242e-38
38.666534 32.813591 0.62283182 2.3477242e-38
38.71978 32.809555 0.36236024 2.3477242e-38
38.623966 32.880249 0.63274384 2.3477242e-38
38.714939 32.854061 0.36688077 2.3477242e-38
38.728348 32.849983 0.87004781 2.3477242e-38
38.647865 33.054535 0.89005208 2.3477242e-38
38.661125 33.080959 0.89025497 2.3477242e-38
38.735714 33.06488 0.38195944 2.3477242e-38
38.647514 33.132626 1.1416386 2.3477242e-38
38.675148 33.146179 0.64571512 2.3477242e-38
38.719875 33.150948 0.39137077 2.3477242e-38
38.624863 33.224976 1.3900431 2.3477242e-38
38.608688 33.259865 0.16660595 2.3477242e-38
38.620369 33.284611 0.16710413 2.3477242e-38
38.633865 33.325264 1.3925467 2.3477242e-38
38.642166 33.306988 0.1657337 2.3477242e-38
38.694202 33.314812 0.65513635 2.3477242e-38
38.654037 33.335903 0.16656768 2.3477242e-38
38.736614 33.323593 0.40320647 2.3477242e-38
38.68782 33.362965 1.1483599 2.3477242e-38
38.661846 33.369568 0.16848874 2.3477242e-38
38.691788 33.394814 1.1493882 2.3477242e-38
38.67749 33.393799 0.16823637 2.3477242e-38
38.711006 33.413853 0.6598407 2.3477242e-38
38.691589 33.431377 1.1509506 2.3477242e-38
38.638367 33.467972 1.3965366 2.3477242e-38
38.694042 33.419586 0.16796803 2.3477242e-38
38.703609 33.445557 0.16883409 2.3477242e-38
38.66066 33.521648 1.3967192 2.3477242e-38
38.708382 33.478794 0.17113996 2.3477242e-38
38.668411 33.552685 1.3971375 2.3477242e-38
38.709705 33.514107 0.17418194 2.3477242e-38
38.730679 33.549248 1.152642 2.3477242e-38
38.723515 33.543602 0.17463422 2.3477242e-38
38.730106 33.569103 0.17588496 2.3477242e-38
38.75882 33.594406 0.66600037 2.3477242e-38
38.737038 33.602776 0.17780924 2.3477242e-38
38.708973 33.665749 1.1592078 2.3477242e-38
38.752968 33.628742 0.17754161 2.3477242e-38
38.751034 33.673531 1.1560211 2.3477242e-38
38.761177 33.657318 0.17876196 2.3477242e-38
38.798908 33.6726 0.42188013 2.3477242e-38
38.770218 33.687431 0.17996681 2.3477242e-38
38.687954 33.786808 1.402565 2.3477242e-38
38.780075 33.719082 0.18115628 2.3477242e-38
38.793831 33.742104 0.18092036 2.3477242e-38
38.701557 33.809574 1.4023317 2.3477242e-38
38.749931 33.848045 0.92298174 2.3477242e-38
38.796902 33.812935 0.18663096 2.3477242e-38
38.738464 33.883503 0.92598808 2.3477242e-38
38.733334 33.88895 1.1660442 2.3477242e-38
38.751854 33.868267 0.19893515 2.3477242e-38
38.738991 33.922424 1.1668675 2.3477242e-38
38.762787 33.898773 0.19975972 2.3477242e-38
38.754486 33.943245 0.68879855 2.3477242e-38
38.745373 33.953362 1.1675229 2.3477242e-38
38.77784 33.924816 0.1994946 2.3477242e-38
38.755638 33.973095 0.69050086 2.3477242e-38
38.715435 34.039696 1.4076724 2.3477242e-38
38.714462 34.074421 1.4086502 2.3477242e-38
38.618118 34.114563 0.0032384396 2.3477242e-38
38.622311 34.141964 0.0050806999 2.3477242e-38
38.742661 34.122337 1.1741525 2.3477242e-38
38.634064 34.171009 0.0056347847 2.3477242e-38
38.632904 34.205219 0.0091044903 2.3477242e-38
38.648811 34.225964 0.0080473423 2.3477242e-38
38.768265 34.20591 1.1750557 2.3477242e-38
38.654308 34.256371 0.009860754 2.3477242e-38
38.655365 34.291084 0.01290226 2.3477242e-38
38.667618 34.313778 0.012674332 2.3477242e-38
38.664192 34.348793 0.01656127 2.3477242e-38
38.652809 34.389858 0.022507191 2.3477242e-38
38.676773 34.410084 0.019762278 2.3477242e-38
38.680996 34.434959 0.021208763 2.3477242e-38
38.797508 34.418365 0.94560301 2.3477242e-38
38.691772 34.464085 0.021765947 2.3477242e-38
38.792084 34.454681 1.1818726 2.3477242e-38
38.6922 34.494698 0.024427414 2.3477242e-38
38.683636 34.53368 0.02954793 2.3477242e-38
38.691574 34.562157 0.030536413 2.3477242e-38
38.702904 34.588871 0.0306952 2.3477242e-38
38.803074 30.063772 2.1407895 2.3477242e-38
38.8242 30.045753 2.43277 2.3477242e-38
38.813351 30.093212 1.5562418 2.3477242e-38
38.823013 30.086891 1.8493631 2.3477242e-38
38.820808 30.092533 2.1404929 2.3477242e-38
38.849026 30.067463 2.4325514 2.3477242e-38
38.849396 30.109375 1.2632411 2.3477242e-38
38.848324 30.113869 1.5554831 2.3477242e-38
38.859432 30.106155 1.8487977 2.3477242e-38
38.869926 30.099037 2.1402638 2.3477242e-38
38.889755 30.082558 2.4327006 2.3477242e-38
38.862427 30.141697 0.37961459 2.3477242e-38
38.87455 30.133039 0.67339528 2.3477242e-38
38.89703 30.117489 1.2610509 2.3477242e-38
38.897396 30.120544 1.5538552 2.3477242e-38
38.908554 30.112848 1.8478706 2.3477242e-38
38.904926 30.119883 2.1399693 2.3477242e-38
38.929062 30.099236 2.4327958 2.3477242e-38
38.902412 30.148178 0.37607825 2.3477242e-38
38.916027 30.138103 0.67018533 2.3477242e-38
38.930527 30.134016 1.5529749 2.3477242e-38
38.974365 30.093948 1.8463948 2.3477242e-38
38.983517 30.088293 2.1399429 2.3477242e-38
38.997768 30.077587 2.4342101 2.3477242e-38
38.938461 30.1649 0.37386477 2.3477242e-38
38.904541 30.218903 2.1391683 2.3477242e-38
38.897488 30.229235 2.4292099 2.3477242e-38
38.949955 30.209299 0.67250669 2.3477242e-38
38.915916 30.252945 1.5564429 2.3477242e-38
38.904266 30.267769 1.8492306 2.3477242e-38
38.889137 30.285963 2.1386805 2.3477242e-38
38.897774 30.280857 2.4279549 2.3477242e-38
38.905884 30.308418 1.5581723 2.3477242e-38
38.911346 30.306471 1.8494023 2.3477242e-38
38.928749 30.337667 1.5580397 2.3477242e-38
38.931351 30.33852 1.8492565 2.3477242e-38
38.941975 30.331566 2.1381211 2.3477242e-38
38.960705 30.316765 2.4279022 2.3477242e-38
38.969231 30.346195 0.97540963 2.3477242e-38
38.967411 30.354671 1.5570177 2.3477242e-38
38.985867 30.34026 1.8481647 2.3477242e-38
38.978367 31.415298 0.19892764 2.3477242e-38
38.930962 31.458433 0.48672402 2.3477242e-38
38.899467 31.488091 0.76733196 2.3477242e-38
38.846863 31.579945 0.7783922 2.3477242e-38
38.843346 31.668819 0.51372647 2.3477242e-38
38.859634 31.949951 0.26570964 2.3477242e-38
38.894691 31.927948 0.79677355 2.3477242e-38
38.972702 31.995745 1.0627315 2.3477242e-38
38.851196 32.042839 0.80831134 2.3477242e-38
38.904091 32.089226 1.0726247 2.3477242e-38
38.845707 32.215794 1.083328 2.3477242e-38
38.918396 32.285244 1.0810181 2.3477242e-38
38.90839 32.331669 1.0840222 2.3477242e-38
38.902985 32.374416 1.086482 2.3477242e-38
38.851501 32.40992 0.83135498 2.3477242e-38
38.835621 32.459599 0.57665849 2.3477242e-38
38.842232 32.457497 0.83518445 2.3477242e-38
38.947075 32.459309 0.82503617 2.3477242e-38
38.836567 32.54287 1.0996616 2.3477242e-38
38.9673 33.095512 0.3520211 2.3477242e-38
38.95005 33.144859 0.35849261 2.3477242e-38
38.986942 33.629227 0.39140081 2.3477242e-38
38.807655 33.769241 0.18102109 2.3477242e-38
38.817856 33.832085 0.43122029 2.3477242e-38
38.820026 33.931179 0.19299626 2.3477242e-38
38.839272 33.956985 0.19197738 2.3477242e-38
38.860992 33.979378 0.19023681 2.3477242e-38
38.867214 34.006466 0.19147623 2.3477242e-38
38.893105 34.028614 0.18898189 2.3477242e-38
38.800488 34.117046 0.45459008 2.3477242e-38
38.907768 34.055042 0.1887151 2.3477242e-38
38.924084 34.076496 0.18774199 2.3477242e-38
38.945503 34.099239 0.18599963 2.3477242e-38
38.95908 34.128326 0.18608546 2.3477242e-38
38.963112 34.156487 0.18769443 2.3477242e-38
38.97913 34.18219 0.18705845 2.3477242e-38
38.849953 34.220074 0.45455039 2.3477242e-38
38.995907 34.209522 0.18640637 2.3477242e-38
38.806129 34.477772 0.71378815 2.3477242e-38
38.80098 34.485062 1.1821518 2.3477242e-38
38.827656 34.657776 0.7208817 2.3477242e-38
38.835876 34.688152 0.72144103 2.3477242e-38
38.827198 34.725521 1.1879128 2.3477242e-38
38.815136 34.75906 0.72790003 2.3477242e-38
38.800331 34.770718 1.1917305 2.3477242e-38
38.84446 34.774509 0.25569594 2.3477242e-38
38.866104 34.792641 0.25324929 2.3477242e-38
38.983418 34.769577 0.23116612 2.3477242e-38
38.808159 34.800964 1.1920147 2.3477242e-38
38.828938 34.817123 0.95968258 2.3477242e-38
38.831703 34.818081 1.190491 2.3477242e-38
38.880337 34.820438 0.48946047 2.3477242e-38
38.887558 34.819324 0.72158468 2.3477242e-38
38.842247 34.845158 1.1904196 2.3477242e-38
38.84079 34.879696 1.1916313 2.3477242e-38
38.901321 34.874901 0.48959243 2.3477242e-38
38.85405 34.903572 1.1912044 2.3477242e-38
38.951309 34.886234 0.71663809 2.3477242e-38
38.915989 35.030682 1.1895807 2.3477242e-38
38.878838 35.074669 0.96461868 2.3477242e-38
38.874146 35.108547 1.1956027 2.3477242e-38
38.86372 35.144432 1.1975789 2.3477242e-38
38.869614 35.173126 1.1978827 2.3477242e-38
39.009663 31.437216 0.1970166 2.3477242e-38
39.026154 31.466217 0.19769514 2.3477242e-38
39.025414 31.514797 0.20249236 2.3477242e-38
39.158062 31.500347 1.3002527 2.3477242e-38
39.14286 31.560646 1.3033067 2.3477242e-38
39.055664 32.538616 0.81912529 2.3477242e-38
39.085388 32.520226 1.0788863 2.3477242e-38
39.159451 32.549042 1.0742993 2.3477242e-38
39.153416 32.591026 0.81254172 2.3477242e-38
39.110897 33.009064 1.0986154 2.3477242e-38
39.185547 33.037315 0.83482945 2.3477242e-38
39.084755 33.171509 0.34158015 2.3477242e-38
39.185448 33.17905 0.32786322 2.3477242e-38
39.099064 33.271553 0.34752774 2.3477242e-38
39.103729 33.271263 0.60224426 2.3477242e-38
39.11195 33.303326 0.34819674 2.3477242e-38
39.023552 33.389202 0.36759782 2.3477242e-38
39.040745 33.454784 0.37024724 2.3477242e-38
39.028717 33.57214 0.38101292 2.3477242e-38
39.135193 33.577343 0.36599696 2.3477242e-38
39.035698 34.650608 0.4552592 2.3477242e-38
39.164452 34.724182 0.68044269 2.3477242e-38
39.041138 34.777046 0.22164047 2.3477242e-38
39.195564 34.769257 0.19411576 2.3477242e-38
39.052853 34.80233 0.22139347 2.3477242e-38
39.088963 34.881992 0.46129966 2.3477242e-38
39.185173 34.840729 0.68359935 2.3477242e-38
39.0993 34.909805 0.46136141 2.3477242e-38
39.160366 34.889278 1.1636522 2.3477242e-38
39.014385 34.945656 0.23814583 2.3477242e-38
39.136589 34.925583 0.45656025 2.3477242e-38
39.177063 34.909851 0.68807888 2.3477242e-38
39.021568 35.007042 0.47901106 2.3477242e-38
39.011097 35.043991 0.71653724 2.3477242e-38
39.085205 35.045826 0.94064796 2.3477242e-38
39.110279 35.099049 0.93989444 2.3477242e-38
39.16185 35.108719 0.69960511 2.3477242e-38
39.129776 35.124596 0.93868804 2.3477242e-38
39.162853 35.136578 0.70076752 2.3477242e-38
39.149017 35.144665 0.93729496 2.3477242e-38
39.207897 32.555698 1.0707272 2.3477242e-38
39.252274 32.562622 0.80103385 2.3477242e-38
39.272736 32.551216 1.0653286 2.3477242e-38
39.318695 32.55735 0.79410088 2.3477242e-38
39.303272 32.570843 1.0637596 2.3477242e-38
39.298927 32.802448 0.2812202 2.3477242e-38
39.335842 32.815865 0.54302669 2.3477242e-38
39.355518 32.80838 1.070008 2.3477242e-38
39.296196 32.881721 0.55237794 2.3477242e-38
39.292286 33.004837 0.82216454 2.3477242e-38
39.303783 33.070732 0.8246094 2.3477242e-38
39.297806 33.113255 0.82753885 2.3477242e-38
39.387447 33.136505 0.8195945 2.3477242e-38
39.27787 33.202282 0.57629073 2.3477242e-38
39.326992 33.246422 0.83169818 2.3477242e-38
39.30843 33.29327 0.57850564 2.3477242e-38
39.330437 33.282436 0.83325255 2.3477242e-38
39.307175 33.367516 0.58347571 2.3477242e-38
39.351254 33.343491 0.83430934 2.3477242e-38
39.376904 33.330639 1.0900385 2.3477242e-38
39.326485 33.395779 0.58289909 2.3477242e-38
39.360428 33.378025 0.83515811 2.3477242e-38
39.396351 33.359108 1.0895522 2.3477242e-38
39.397911 33.363419 1.6008803 2.3477242e-38
39.38541 33.399044 1.0920548 2.3477242e-38
39.346191 33.417183 0.58181977 2.3477242e-38
39.371677 33.404598 0.8353672 2.3477242e-38
39.378014 33.435856 0.57904911 2.3477242e-38
39.393333 33.429401 0.83439136 2.3477242e-38
39.320312 33.509598 0.5909065 2.3477242e-38
39.251186 34.80611 0.18695176 2.3477242e-38
39.231766 34.852592 0.67804718 2.3477242e-38
39.259663 34.868324 0.18975008 2.3477242e-38
39.23518 34.910137 0.19690561 2.3477242e-38
39.391739 34.976204 0.66283166 2.3477242e-38
39.470444 32.405037 0.22383726 2.3477242e-38
39.493172 32.430939 0.22289717 2.3477242e-38
39.505417 32.459187 0.22359705 2.3477242e-38
39.41188 32.570736 1.0550096 2.3477242e-38
39.448978 32.585983 0.78271484 2.3477242e-38
39.417236 33.234596 1.3407998 2.3477242e-38
39.402599 33.279587 1.3429992 2.3477242e-38
39.440147 33.259392 1.5973787 2.3477242e-38
39.466534 33.324909 1.8557289 2.3477242e-38
39.414337 33.38702 1.6005368 2.3477242e-38
39.457306 33.364044 1.8560948 2.3477242e-38
39.498108 33.38047 2.1114225 2.3477242e-38
39.403675 33.425911 1.0915859 2.3477242e-38
39.406975 33.426571 1.3468153 2.3477242e-38
39.432659 33.413963 1.6001595 2.3477242e-38
39.437847 33.413521 1.8567388 2.3477242e-38
39.431297 33.45211 1.345963 2.3477242e-38
39.424313 33.45882 1.6012237 2.3477242e-38
39.448448 33.44725 1.856613 2.3477242e-38
39.4795 33.43161 2.1110752 2.3477242e-38
39.52269 33.408855 2.3675008 2.3477242e-38
39.456867 33.468124 1.3447648 2.3477242e-38
39.437813 33.481869 1.6009885 2.3477242e-38
39.448174 33.478424 1.8567328 2.3477242e-38
39.496532 33.45277 2.1108425 2.3477242e-38
39.513882 33.445244 2.3666341 2.3477242e-38
39.523941 33.463696 0.82249367 2.3477242e-38
39.500061 33.482841 1.3423977 2.3477242e-38
39.467186 33.504528 1.6000472 2.3477242e-38
39.468925 33.50613 1.8563411 2.3477242e-38
39.500069 33.490654 2.1105227 2.3477242e-38
39.550934 33.491119 1.3393576 2.3477242e-38
39.500748 33.522667 1.5988481 2.3477242e-38
39.483444 33.535248 1.8560995 2.3477242e-38
39.50251 33.526852 2.1102207 2.3477242e-38
39.54245 33.506447 2.3658965 2.3477242e-38
39.549713 33.527695 1.5967681 2.3477242e-38
39.515064 33.550159 1.8554009 2.3477242e-38
39.520279 33.549759 2.1099713 2.3477242e-38
39.539452 33.541374 2.36516 2.3477242e-38
39.57626 33.539215 0.29889858 2.3477242e-38
39.563416 33.56229 1.8542933 2.3477242e-38
39.546047 33.574753 2.1096764 2.3477242e-38
39.561775 33.568405 2.365 2.3477242e-38
39.558025 33.587124 0.3050611 2.3477242e-38
39.581261 33.592285 2.1094079 2.3477242e-38
39.590042 33.589916 2.3650494 2.3477242e-38
39.640022 32.492199 0.20760643 2.3477242e-38
39.612064 32.561123 1.0383908 2.3477242e-38
39.712311 32.532734 0.75316191 2.3477242e-38
39.647682 32.578648 1.036263 2.3477242e-38
39.767284 32.532967 0.74761951 2.3477242e-38
39.794693 32.55653 0.74616861 2.3477242e-38
39.6129 33.610149 2.3650353 2.3477242e-38
39.638527 33.635509 2.36497 2.3477242e-38
39.684155 33.647686 2.3654966 2.3477242e-38
39.747208 33.646103 2.3665831 2.3477242e-38
37.591492 42.612133 0.45740044 2.3418409e-38
37.594105 42.639786 0.25055718 2.3418409e-38
37.59132 42.639751 0.45495534 2.3418409e-38
37.592178 42.669579 0.45211852 2.3418409e-38
37.594666 42.724609 0.65118003 2.3418409e-38
37.592381 42.751507 0.64934897 2.3418409e-38
37.594196 42.778858 0.64685106 2.3418409e-38
37.595253 42.807571 0.64434493 2.3418409e-38
37.599022 42.806873 0.23255217 2.3418409e-38
37.594444 42.835438 0.64217651 2.3418409e-38
37.599857 42.835583 0.22940564 2.3418409e-38
37.59848 42.892624 0.63683486 2.3418409e-38
37.586861 42.915165 0.63669395 2.3418409e-38
37.788483 42.295467 0.2451638 2.3418409e-38
37.794876 42.326591 0.65109169 2.3418409e-38
37.755848 42.307259 0.25059116 2.3418409e-38
37.769276 42.346199 0.65361881 2.3418409e-38
37.732227 42.327576 0.25342226 2.3418409e-38
37.753223 42.363403 0.65483403 2.3418409e-38
37.79958 42.384834 0.84846938 2.3418409e-38
37.719864 42.346268 0.25414693 2.3418409e-38
37.794426 42.379932 0.44188869 2.3418409e-38
37.730534 42.380878 0.65704381 2.3418409e-38
37.69912 42.364487 0.25656891 2.3418409e-38
37.692593 42.362961 0.46127808 2.3418409e-38
37.675949 42.38316 0.25941169 2.3418409e-38
37.652744 42.396919 0.26271021 2.3418409e-38
37.642525 42.3937 0.46750426 2.3418409e-38
37.710819 42.401184 0.65857148 2.3418409e-38
37.784126 42.434837 0.84728456 2.3418409e-38
37.692848 42.41737 0.66012597 2.3418409e-38
37.784119 42.459232 0.84569514 2.3418409e-38
37.679043 42.438583 0.66065216 2.3418409e-38
37.759346 42.475853 0.84787631 2.3418409e-38
37.649719 42.422821 0.26084793 2.3418409e-38
37.66637 42.461895 0.66083312 2.3418409e-38
37.633541 42.444447 0.26197815 2.3418409e-38
37.621571 42.440353 0.46720147 2.3418409e-38
37.657249 42.481964 0.66070318 2.3418409e-38
37.631573 42.467667 0.26013374 2.3418409e-38
37.633945 42.470058 0.46247256 2.3418409e-38
37.646851 42.504684 0.66055644 2.3418409e-38
37.608772 42.484619 0.26298928 2.3418409e-38
37.61644 42.489441 0.46385968 2.3418409e-38
37.639965 42.529026 0.65973556 2.3418409e-38
37.727036 42.570549 0.84583342 2.3418409e-38
37.610771 42.512932 0.2598418 2.3418409e-38
37.62027 42.518623 0.46064699 2.3418409e-38
37.633621 42.552025 0.65892339 2.3418409e-38
37.706242 42.587112 0.84744394 2.3418409e-38
37.602661 42.535011 0.25927615 2.3418409e-38
37.615719 42.542389 0.45935977 2.3418409e-38
37.630154 42.578018 0.65742838 2.3418409e-38
37.606247 42.564201 0.25570011 2.3418409e-38
37.610466 42.567486 0.45806432 2.3418409e-38
37.600895 42.589275 0.25426877 2.3418409e-38
37.695538 42.609974 0.84729719 2.3418409e-38
37.621254 42.601498 0.65694582 2.3418409e-38
37.618256 42.626171 0.65545952 2.3418409e-38
37.604912 42.617218 0.25070119 2.3418409e-38
37.610981 42.650478 0.6546402 2.3418409e-38
37.606537 42.677818 0.65313768 2.3418409e-38
37.603691 42.673843 0.24525678 2.3418409e-38
37.600399 42.699459 0.65233588 2.3418409e-38
37.656521 42.728062 0.84425366 2.3418409e-38
