# .PCD v0.7 - Point Cloud Data file format
VERSION 0.7
FIELDS x y z rgb
SIZE 4 4 4 4
TYPE F F F F
COUNT 1 1 1 1
WIDTH 59
HEIGHT 1
VIEWPOINT 0 0 0 1 0 0 0
POINTS 59
DATA ascii
33.79628 52.228622 2.2986782 2.3509528e-38
33.764004 52.283577 0.035930157 2.3509528e-38
33.760166 52.25972 2.2990201 2.3509528e-38
33.723831 52.274361 0.0389328 2.3509528e-38
33.705986 52.200203 2.2980256 2.3509528e-38
33.692299 52.311985 2.2995832 2.3509528e-38
33.664207 52.373665 2.3003914 2.3509528e-38
33.620811 52.352325 2.2999773 2.3509528e-38
33.992714 52.191952 1.6586946 2.3509528e-38
33.903008 52.032894 0.065854549 2.3509528e-38
33.868732 52.067871 0.062354088 2.3509528e-38
33.838299 52.099525 0.059144974 2.3509528e-38
33.821491 52.178604 0.048543453 2.3509528e-38
33.9972 52.211655 0.36265624 2.3509528e-38
33.999573 52.213413 1.9785855 2.3509528e-38
33.965378 52.239891 0.3604511 2.3509528e-38
33.972321 52.261791 0.68555653 2.3509528e-38
33.974148 52.266644 1.0091507 2.3509528e-38
33.969227 52.248962 1.3331075 2.3509528e-38
33.963882 52.229862 1.6578411 2.3509528e-38
33.928226 52.267521 0.35850215 2.3509528e-38
33.937382 52.297112 0.68316638 2.3509528e-38
33.938087 52.298195 1.0076294 2.3509528e-38
33.935505 52.288181 1.3316064 2.3509528e-38
33.935349 52.286339 1.6564182 2.3509528e-38
33.934155 52.281021 1.9782727 2.3509528e-38
33.937656 52.29155 2.2999818 2.3509528e-38
33.900612 52.310829 0.3543011 2.3509528e-38
33.910835 52.344349 0.67934895 2.3509528e-38
33.919979 52.374203 1.0023348 2.3509528e-38
33.911285 52.343201 1.3291048 2.3509528e-38
33.912281 52.345234 1.6548634 2.3509528e-38
33.911682 52.341854 1.9778606 2.3509528e-38
33.903347 52.312088 2.3001709 2.3509528e-38
33.884995 52.389217 1.9775726 2.3509528e-38
33.877308 52.361347 2.3007936 2.3509528e-38
33.804134 52.265961 0.036763906 2.3509528e-38
34.000809 52.221134 1.0119349 2.3509528e-38
34.00602 52.233505 2.299371 2.3509528e-38
34.368324 52.051735 0.36726558 2.3509528e-38
34.39225 52.122353 0.6857357 2.3509528e-38
34.322891 52.052223 0.36905086 2.3509528e-38
34.334702 52.086994 0.69105935 2.3509528e-38
34.354111 52.144707 1.0089136 2.3509528e-38
34.285576 52.054085 0.37033129 2.3509528e-38
34.290466 52.068066 0.69434428 2.3509528e-38
34.304733 52.110607 1.0127157 2.3509528e-38
34.314835 52.14045 1.3327456 2.3509528e-38
34.249969 52.083385 0.69417977 2.3509528e-38
34.262268 52.120285 1.0130688 2.3509528e-38
34.264874 52.127361 1.3343354 2.3509528e-38
34.281876 52.17873 1.6560458 2.3509528e-38
34.374981 52.206821 1.328172 2.3509528e-38
34.345093 52.231682 1.653765 2.3509528e-38
34.297779 52.226734 1.9774067 2.3509528e-38
34.32312 52.303764 2.3014235 2.3509528e-38
34.456871 52.080467 0.36021018 2.3509528e-38
34.414059 52.059376 0.36448407 2.3509528e-38
34.451584 52.169563 0.67919493 2.3509528e-38
