# .PCD v0.7 - Point Cloud Data file format
VERSION 0.7
FIELDS x y z rgb
SIZE 4 4 4 4
TYPE F F F F
COUNT 1 1 1 1
WIDTH 796
HEIGHT 1
VIEWPOINT 0 0 0 1 0 0 0
POINTS 796
DATA ascii
37.591492 42.612133 0.45740044 2.3418409e-38
37.594105 42.639786 0.25055718 2.3418409e-38
37.59132 42.639751 0.45495534 2.3418409e-38
37.592178 42.669579 0.45211852 2.3418409e-38
37.594666 42.724609 0.65118003 2.3418409e-38
37.592381 42.751507 0.64934897 2.3418409e-38
37.594196 42.778858 0.64685106 2.3418409e-38
37.595253 42.807571 0.64434493 2.3418409e-38
37.599022 42.806873 0.23255217 2.3418409e-38
37.594444 42.835438 0.64217651 2.3418409e-38
37.599857 42.835583 0.22940564 2.3418409e-38
37.59848 42.892624 0.63683486 2.3418409e-38
37.586861 42.915165 0.63669395 2.3418409e-38
37.788483 42.295467 0.2451638 2.3418409e-38
37.794876 42.326591 0.65109169 2.3418409e-38
37.755848 42.307259 0.25059116 2.3418409e-38
37.769276 42.346199 0.65361881 2.3418409e-38
37.732227 42.327576 0.25342226 2.3418409e-38
37.753223 42.363403 0.65483403 2.3418409e-38
37.79958 42.384834 0.84846938 2.3418409e-38
37.719864 42.346268 0.25414693 2.3418409e-38
37.794426 42.379932 0.44188869 2.3418409e-38
37.730534 42.380878 0.65704381 2.3418409e-38
37.69912 42.364487 0.25656891 2.3418409e-38
37.692593 42.362961 0.46127808 2.3418409e-38
37.675949 42.38316 0.25941169 2.3418409e-38
37.652744 42.396919 0.26271021 2.3418409e-38
37.642525 42.3937 0.46750426 2.3418409e-38
37.710819 42.401184 0.65857148 2.3418409e-38
37.784126 42.434837 0.84728456 2.3418409e-38
37.692848 42.41737 0.66012597 2.3418409e-38
37.784119 42.459232 0.84569514 2.3418409e-38
37.679043 42.438583 0.66065216 2.3418409e-38
37.759346 42.475853 0.84787631 2.3418409e-38
37.649719 42.422821 0.26084793 2.3418409e-38
37.66637 42.461895 0.66083312 2.3418409e-38
37.633541 42.444447 0.26197815 2.3418409e-38
37.621571 42.440353 0.46720147 2.3418409e-38
37.657249 42.481964 0.66070318 2.3418409e-38
37.631573 42.467667 0.26013374 2.3418409e-38
37.633945 42.470058 0.46247256 2.3418409e-38
37.646851 42.504684 0.66055644 2.3418409e-38
37.608772 42.484619 0.26298928 2.3418409e-38
37.61644 42.489441 0.46385968 2.3418409e-38
37.639965 42.529026 0.65973556 2.3418409e-38
37.727036 42.570549 0.84583342 2.3418409e-38
37.610771 42.512932 0.2598418 2.3418409e-38
37.62027 42.518623 0.46064699 2.3418409e-38
37.633621 42.552025 0.65892339 2.3418409e-38
37.706242 42.587112 0.84744394 2.3418409e-38
37.602661 42.535011 0.25927615 2.3418409e-38
37.615719 42.542389 0.45935977 2.3418409e-38
37.630154 42.578018 0.65742838 2.3418409e-38
37.606247 42.564201 0.25570011 2.3418409e-38
37.610466 42.567486 0.45806432 2.3418409e-38
37.600895 42.589275 0.25426877 2.3418409e-38
37.695538 42.609974 0.84729719 2.3418409e-38
37.621254 42.601498 0.65694582 2.3418409e-38
37.618256 42.626171 0.65545952 2.3418409e-38
37.604912 42.617218 0.25070119 2.3418409e-38
37.610981 42.650478 0.6546402 2.3418409e-38
37.606537 42.677818 0.65313768 2.3418409e-38
37.603691 42.673843 0.24525678 2.3418409e-38
37.600399 42.699459 0.65233588 2.3418409e-38
37.656521 42.728062 0.84425366 2.3418409e-38
37.688866 42.739895 0.22196043 2.3418409e-38
37.656643 42.752392 0.22696495 2.3418409e-38
37.604977 42.728371 0.44456005 2.3418409e-38
37.617409 42.761276 0.23368728 2.3418409e-38
37.665997 42.786575 0.42868626 2.3418409e-38
37.603333 42.780811 0.23441112 2.3418409e-38
37.632507 42.796619 0.43353939 2.3418409e-38
37.641323 42.803589 0.84091294 2.3418409e-38
37.642353 42.832462 0.83872664 2.3418409e-38
37.676876 42.844551 0.0035233498 2.3418409e-38
37.612396 42.814869 0.43531513 2.3418409e-38
37.637985 42.858704 0.83741641 2.3418409e-38
37.787342 42.935455 1.0189157 2.3418409e-38
37.634163 42.851582 0.011919737 2.3418409e-38
37.609764 42.841877 0.43325436 2.3418409e-38
37.603001 42.86647 0.63832748 2.3418409e-38
37.634205 42.883617 0.83611465 2.3418409e-38
37.790451 42.964397 1.0168116 2.3418409e-38
37.616402 42.869385 0.013684273 2.3418409e-38
37.653507 42.889553 0.21338975 2.3418409e-38
37.604218 42.865799 0.43196952 2.3418409e-38
37.633183 42.911678 0.83422077 2.3418409e-38
37.790993 42.993843 1.014945 2.3418409e-38
37.611755 42.895527 0.011644363 2.3418409e-38
37.676662 42.930065 0.20466161 2.3418409e-38
37.610146 42.897308 0.4279896 2.3418409e-38
37.625031 42.936138 0.83349526 2.3418409e-38
37.61393 42.92524 0.0077068806 2.3418409e-38
37.661453 42.951054 0.20537794 2.3418409e-38
37.612465 42.927086 0.42477763 2.3418409e-38
37.605602 42.951801 0.63081765 2.3418409e-38
37.622757 42.96199 0.83190215 2.3418409e-38
37.608067 42.949192 0.0061504841 2.3418409e-38
37.631275 42.962551 0.20996726 2.3418409e-38
37.653687 42.975487 0.4131279 2.3418409e-38
37.621456 42.990108 0.83000886 2.3418409e-38
37.63242 42.990673 -0.0039567947 2.3418409e-38
37.622902 42.987007 0.20896745 2.3418409e-38
37.626163 42.990005 0.41644204 2.3418409e-38
37.784374 43.019684 1.0140624 2.3418409e-38
37.778374 43.044167 1.0131887 2.3418409e-38
37.654938 43.006359 0.61884952 2.3418409e-38
37.77335 43.070919 1.0120606 2.3418409e-38
37.766788 43.094334 0.59471309 2.3418409e-38
37.618301 43.01733 0.82840776 2.3418409e-38
37.766479 43.096756 1.0111792 2.3418409e-38
37.627373 43.016945 -0.0059962273 2.3418409e-38
37.650742 43.030563 0.19895041 2.3418409e-38
37.704548 43.060219 0.39633512 2.3418409e-38
37.783875 43.129448 0.58917928 2.3418409e-38
37.61647 43.041908 0.82682359 2.3418409e-38
37.764469 43.121735 1.0098224 2.3418409e-38
37.63052 43.044197 -0.0099174976 2.3418409e-38
37.660835 43.061577 0.19367278 2.3418409e-38
37.683449 43.074871 0.39851403 2.3418409e-38
37.793423 43.165977 0.58463371 2.3418409e-38
37.619408 43.074226 0.8240459 2.3418409e-38
37.763706 43.152672 1.0079484 2.3418409e-38
37.643429 43.081902 -0.017186403 2.3418409e-38
37.689339 43.107735 0.18321633 2.3418409e-38
37.639408 43.082355 0.40527725 2.3418409e-38
37.61248 43.099644 0.82302988 2.3418409e-38
37.760063 43.180405 1.0065752 2.3418409e-38
37.62439 43.100903 -0.015427351 2.3418409e-38
37.649548 43.115742 0.18994761 2.3418409e-38
37.689442 43.138512 0.39131117 2.3418409e-38
37.616631 43.129387 0.82026875 2.3418409e-38
37.633362 43.133297 -0.021255493 2.3418409e-38
37.667183 43.152924 0.18251395 2.3418409e-38
37.619942 43.160511 0.81749952 2.3418409e-38
37.636368 43.164322 -0.025668144 2.3418409e-38
37.696411 43.199684 0.38412476 2.3418409e-38
37.616203 43.187881 0.81589937 2.3418409e-38
37.632439 43.191658 -0.028181076 2.3418409e-38
37.640873 43.198887 0.39358854 2.3418409e-38
37.757057 43.206802 1.0052105 2.3418409e-38
37.798618 43.225433 0.3642925 2.3418409e-38
37.756706 43.236469 1.0033453 2.3418409e-38
37.767956 43.237408 0.15402222 2.3418409e-38
37.751034 43.263302 1.002219 2.3418409e-38
37.620029 43.21777 0.81313837 2.3418409e-38
37.754704 43.293594 0.99986959 2.3418409e-38
37.637661 43.222378 -0.033060074 2.3418409e-38
37.729656 43.274555 0.15718555 2.3418409e-38
37.663429 43.239227 0.38577449 2.3418409e-38
37.628933 43.250599 0.80949998 2.3418409e-38
37.751328 43.320072 0.99850571 2.3418409e-38
37.67672 43.272049 -0.047436714 2.3418409e-38
37.644257 43.255287 0.17552936 2.3418409e-38
37.687534 43.280678 0.3775754 2.3418409e-38
37.628334 43.280006 0.80731535 2.3418409e-38
37.750565 43.349861 0.99664092 2.3418409e-38
37.785988 43.363213 -0.081769466 2.3418409e-38
37.641777 43.283703 0.17281306 2.3418409e-38
37.661064 43.295807 0.38051045 2.3418409e-38
37.632797 43.312366 0.80425346 2.3418409e-38
37.741051 43.374802 0.99600828 2.3418409e-38
37.772957 43.386318 -0.081910133 2.3418409e-38
37.640896 43.313099 0.16966701 2.3418409e-38
37.643116 43.315639 0.38152516 2.3418409e-38
37.637135 43.344791 0.80119169 2.3418409e-38
37.656887 43.352177 0.1622237 2.3418409e-38
37.640472 43.344139 0.37908173 2.3418409e-38
37.652954 43.38266 0.58630073 2.3418409e-38
37.644779 43.379246 0.79754484 2.3418409e-38
37.638809 43.371986 0.16337574 2.3418409e-38
37.651356 43.380459 0.37356412 2.3418409e-38
37.621098 43.394531 0.58988595 2.3418409e-38
37.7859 43.428135 0.56275725 2.3418409e-38
37.740086 43.404636 0.99414396 2.3418409e-38
37.763233 43.411304 -0.082999945 2.3418409e-38
37.740734 43.435486 0.99203312 2.3418409e-38
37.750057 43.434341 -0.08313942 2.3418409e-38
37.645432 43.409828 0.79506791 2.3418409e-38
37.73439 43.46241 0.99090838 2.3418409e-38
37.73513 43.456367 -0.082802773 2.3418409e-38
37.657909 43.413181 0.15507245 2.3418409e-38
37.7029 43.440407 0.35882127 2.3418409e-38
37.626587 43.424374 0.58638191 2.3418409e-38
37.656082 43.442749 0.79114425 2.3418409e-38
37.73296 43.488632 0.9893074 2.3418409e-38
37.716667 43.472725 -0.081024408 2.3418409e-38
37.7812 43.51276 0.33832681 2.3418409e-38
37.641541 43.465233 0.58048487 2.3418409e-38
37.657425 43.47578 0.78836668 2.3418409e-38
37.730785 43.519928 0.98743558 2.3418409e-38
37.710915 43.501869 -0.083545685 2.3418409e-38
37.73135 43.516411 0.34625304 2.3418409e-38
37.660217 43.506187 0.78560495 2.3418409e-38
37.731792 43.549561 0.98533332 2.3418409e-38
37.691563 43.519466 -0.081774235 2.3418409e-38
37.683136 43.517113 0.35419703 2.3418409e-38
37.663803 43.53899 0.78254282 2.3418409e-38
37.737015 43.583622 0.98248327 2.3418409e-38
37.669708 43.537346 -0.079535246 2.3418409e-38
37.673038 43.541904 0.35329175 2.3418409e-38
37.648788 43.561386 0.57060063 2.3418409e-38
37.666466 43.573193 0.77947259 2.3418409e-38
37.667042 43.568401 -0.083004951 2.3418409e-38
37.658764 43.594593 0.56608045 2.3418409e-38
37.653343 43.587479 -0.082648993 2.3418409e-38
37.736187 43.616051 0.9803648 2.3418409e-38
37.669708 43.602425 0.77671897 2.3418409e-38
37.730858 43.640385 0.9792577 2.3418409e-38
37.668682 43.631577 0.56120563 2.3418409e-38
37.67292 43.635403 0.77365673 2.3418409e-38
37.725521 43.668446 0.97788787 2.3418409e-38
37.644638 43.613201 -0.084209919 2.3418409e-38
37.700195 43.649323 0.3375113 2.3418409e-38
37.683502 43.671738 0.55531466 2.3418409e-38
37.672623 43.666386 0.7711798 2.3418409e-38
37.725174 43.699612 0.97577822 2.3418409e-38
37.624222 43.631851 -0.082442999 2.3418409e-38
37.713158 43.688477 0.33122253 2.3418409e-38
37.690567 43.705536 0.55112457 2.3418409e-38
37.678097 43.699165 0.76783264 2.3418409e-38
37.722153 43.727394 0.97416997 2.3418409e-38
37.760597 43.752197 1.1840087 2.3418409e-38
37.621155 43.659225 -0.085420847 2.3418409e-38
37.720085 43.722305 0.32647991 2.3418409e-38
37.693321 43.738686 0.54760361 2.3418409e-38
37.680931 43.732319 0.76477015 2.3418409e-38
37.723274 43.759666 0.97181392 2.3418409e-38
37.729397 43.759617 0.32095957 2.3418409e-38
37.694267 43.770855 0.5444212 2.3418409e-38
37.681957 43.764484 0.7620008 2.3418409e-38
37.72258 43.790943 0.96970439 2.3418409e-38
37.73188 43.792885 0.31697786 2.3418409e-38
37.687057 43.797455 0.7586534 2.3418409e-38
37.700947 43.804859 0.54023063 2.3418409e-38
37.7243 43.82196 0.96735609 2.3418409e-38
37.735649 43.830307 1.1816075 2.3418409e-38
37.735077 43.824863 0.31300414 2.3418409e-38
37.703312 43.838184 0.53670967 2.3418409e-38
37.689507 43.83078 0.75559103 2.3418409e-38
37.720016 43.851204 0.9657408 2.3418409e-38
37.734737 43.861717 1.1798701 2.3418409e-38
37.743958 43.862423 0.30748343 2.3418409e-38
37.707211 43.87262 0.53284991 2.3418409e-38
37.688488 43.862045 0.7531147 2.3418409e-38
37.715626 43.880463 0.96412551 2.3418409e-38
37.723621 43.886784 1.1793354 2.3418409e-38
37.749359 43.89798 0.30273223 2.3418409e-38
37.710171 43.90472 0.52933657 2.3418409e-38
37.69154 43.894131 0.75006008 2.3418409e-38
37.71701 43.911591 0.96177769 2.3418409e-38
37.721676 43.915821 1.1778064 2.3418409e-38
37.747208 43.926991 0.29991269 2.3418409e-38
37.708824 43.936092 0.52649331 2.3418409e-38
37.691948 43.926548 0.74729073 2.3418409e-38
37.719086 43.945187 0.95917487 2.3418409e-38
37.747387 43.959496 0.29631579 2.3418409e-38
37.713989 43.971775 0.52229464 2.3418409e-38
37.69722 43.962223 0.74364269 2.3418409e-38
37.722702 43.979908 0.95632517 2.3418409e-38
37.750744 43.994171 0.29194927 2.3418409e-38
37.697365 43.994747 0.74087322 2.3418409e-38
37.719009 44.00753 0.51809597 2.3418409e-38
37.721184 44.011456 0.9542166 2.3418409e-38
37.760548 44.033184 0.28604317 2.3418409e-38
37.723118 44.040932 0.51424372 2.3418409e-38
37.699924 44.02705 0.73781884 2.3418409e-38
37.727074 44.046032 0.95112765 2.3418409e-38
37.754639 44.060219 0.28399384 2.3418409e-38
37.722916 44.073578 0.51106167 2.3418409e-38
37.703129 44.06184 0.73446357 2.3418409e-38
37.725307 44.077667 0.94901907 2.3418409e-38
37.760872 44.097229 0.27885735 2.3418409e-38
37.728416 44.108185 0.50687051 2.3418409e-38
37.71204 44.098618 0.73023665 2.3418409e-38
37.730938 44.112366 0.94593 2.3418409e-38
37.759666 44.127552 0.27565336 2.3418409e-38
37.731239 44.143116 0.50301051 2.3418409e-38
37.710022 44.13026 0.72776055 2.3418409e-38
37.735535 44.148491 0.94283307 2.3418409e-38
37.76889 44.166874 0.26974702 2.3418409e-38
37.733925 44.178112 0.49915051 2.3418409e-38
37.714458 44.166336 0.72411215 2.3418409e-38
37.736687 44.182476 0.94023049 2.3418409e-38
37.766529 44.198654 0.26653552 2.3418409e-38
37.734112 44.209614 0.49597633 2.3418409e-38
37.718021 44.200031 0.7207644 2.3418409e-38
37.740265 44.21627 0.93738854 2.3418409e-38
37.764961 44.229111 0.26333189 2.3418409e-38
37.734184 44.241158 0.49280238 2.3418409e-38
37.721451 44.233788 0.71741652 2.3418409e-38
37.745354 44.251244 0.93429911 2.3418409e-38
37.769787 44.264 0.25858796 2.3418409e-38
37.740433 44.280998 0.48791754 2.3418409e-38
37.719643 44.26807 0.71464014 2.3418409e-38
37.746819 44.287868 0.93144178 2.3418409e-38
37.771 44.300568 0.25421393 2.3418409e-38
37.742798 44.312408 0.48441195 2.3418409e-38
37.728634 44.303947 0.71042025 2.3418409e-38
37.75256 44.321621 0.92835999 2.3418409e-38
37.77486 44.333122 0.24986279 2.3418409e-38
37.745491 44.35017 0.4802053 2.3418409e-38
37.728176 44.339462 0.70735049 2.3418409e-38
37.753735 44.358372 0.92550266 2.3418409e-38
37.770939 44.366463 0.24664414 2.3418409e-38
37.749908 44.385288 0.4760139 2.3418409e-38
37.734322 44.375713 0.70341611 2.3418409e-38
37.748493 44.386814 0.92389715 2.3418409e-38
37.773613 44.400478 0.24228537 2.3418409e-38
37.750011 44.419571 0.47249341 2.3418409e-38
37.737759 44.412258 0.69976747 2.3418409e-38
37.794502 44.449402 0.23329675 2.3418409e-38
37.755108 44.453465 0.46830928 2.3418409e-38
37.734863 44.440479 0.6976006 2.3418409e-38
37.799393 44.487125 0.91128623 2.3418409e-38
37.755592 44.490345 0.46444201 2.3418409e-38
37.745144 44.4842 0.69247746 2.3418409e-38
37.761066 44.526859 0.45991111 2.3418409e-38
37.747494 44.518448 0.68912971 2.3418409e-38
37.761787 44.529877 0.91177177 2.3418409e-38
37.759644 44.562714 0.45638335 2.3418409e-38
37.749374 44.55661 0.68547344 2.3418409e-38
37.778217 44.578537 0.9064399 2.3418409e-38
37.762249 44.599567 0.45218432 2.3418409e-38
37.756886 44.596954 0.6809442 2.3418409e-38
37.769863 44.636089 0.44732153 2.3418409e-38
37.762993 44.632359 0.67701697 2.3418409e-38
37.777405 44.644062 0.90149808 2.3418409e-38
37.769588 44.673271 0.44345438 2.3418409e-38
37.759605 44.667236 0.67424119 2.3418409e-38
37.775631 44.680187 0.89888871 2.3418409e-38
37.772739 44.708961 0.43926299 2.3418409e-38
37.764442 44.704121 0.67030644 2.3418409e-38
37.780502 44.717167 0.89555156 2.3418409e-38
37.782093 44.749401 0.43371367 2.3418409e-38
37.767544 44.739902 0.66666508 2.3418409e-38
37.786823 44.755398 0.8919667 2.3418409e-38
37.782932 44.787952 0.42950726 2.3418409e-38
37.773247 44.782005 0.66212821 2.3418409e-38
37.78619 44.792873 0.88910985 2.3418409e-38
37.789356 44.828751 0.42428982 2.3418409e-38
37.775032 44.819283 0.65847933 2.3418409e-38
37.786415 44.829048 0.88626063 2.3418409e-38
37.796631 44.868275 0.41907966 2.3418409e-38
37.777683 44.855263 0.65483797 2.3418409e-38
37.793861 44.868687 0.88242817 2.3418409e-38
37.781773 44.892498 0.65090322 2.3418409e-38
37.799564 44.907215 0.87884319 2.3418409e-38
37.792549 44.937157 0.6454922 2.3418409e-38
37.795273 44.975914 0.64154971 2.3418409e-38
37.797836 45.014736 0.63760746 2.3418409e-38
37.790047 45.112041 -0.085798502 2.3418409e-38
37.770294 45.133942 -0.085489511 2.3418409e-38
37.752007 45.15699 -0.085610628 2.3418409e-38
37.730602 45.177547 -0.084868193 2.3418409e-38
37.92683 42.220383 0.63818407 2.3418409e-38
37.977654 42.24239 0.83367419 2.3418409e-38
37.930302 42.219044 0.22364986 2.3418409e-38
37.902561 42.209152 0.43658853 2.3418409e-38
37.904434 42.23867 0.6403861 2.3418409e-38
37.949657 42.258553 0.83642745 2.3418409e-38
37.891747 42.230736 0.23034704 2.3418409e-38
37.878433 42.226654 0.43949592 2.3418409e-38
37.882004 42.256851 0.64258909 2.3418409e-38
37.930782 42.278358 0.83772659 2.3418409e-38
37.867634 42.248192 0.23361897 2.3418409e-38
37.885117 42.256775 0.43589509 2.3418409e-38
37.859531 42.274929 0.64479303 2.3418409e-38
37.910034 42.297318 0.83931756 2.3418409e-38
37.825455 42.258026 0.24117601 2.3418409e-38
37.855446 42.27187 0.43995273 2.3418409e-38
37.834629 42.29351 0.64732599 2.3418409e-38
37.881363 42.314495 0.84206486 2.3418409e-38
37.800724 42.276562 0.24444115 2.3418409e-38
37.811428 42.307873 0.64988685 2.3418409e-38
37.867168 42.332813 0.84280252 2.3418409e-38
37.887009 42.338516 0.42893052 2.3418409e-38
37.852341 42.352451 0.84353185 2.3418409e-38
37.824795 42.371437 0.84598219 2.3418409e-38
37.828522 42.370369 0.43665922 2.3418409e-38
37.800346 42.412731 0.84657037 2.3418409e-38
37.988819 42.74889 1.0080882 2.3418409e-38
37.96328 42.7658 1.0099015 2.3418409e-38
37.950916 42.787178 1.010005 2.3418409e-38
37.936039 42.809048 1.0103457 2.3418409e-38
37.916859 42.830513 1.0111699 2.3418409e-38
37.896072 42.84602 1.0125128 2.3418409e-38
37.879257 42.866817 1.0131016 2.3418409e-38
37.865944 42.889313 1.0131996 2.3418409e-38
37.976006 42.936966 -0.071620226 2.3418409e-38
37.831932 42.899773 1.016257 2.3418409e-38
37.815308 42.884869 -0.030963659 2.3418409e-38
37.800785 42.913212 1.0188154 2.3418409e-38
37.879925 43.242363 0.56522179 2.3418409e-38
37.951199 43.309448 0.54885805 2.3418409e-38
37.972946 43.351925 0.54195094 2.3418409e-38
37.959961 43.37558 0.54180586 2.3418409e-38
37.801525 43.285851 0.14228141 2.3418409e-38
37.951126 43.399715 0.54099357 2.3418409e-38
37.945663 43.425751 0.53950512 2.3418409e-38
37.923862 43.444504 0.54105282 2.3418409e-38
37.890007 43.456375 0.5449692 2.3418409e-38
37.851921 43.592045 1.1853499 2.3418409e-38
37.801044 44.484482 0.22817492 2.3418409e-38
37.897854 44.594875 1.1226234 2.3418409e-38
37.817368 44.532791 0.21994829 2.3418409e-38
37.837017 44.579659 0.21135104 2.3418409e-38
37.916206 44.67878 1.1159325 2.3418409e-38
37.835354 44.615704 0.2073617 2.3418409e-38
37.861588 44.669941 0.19682944 2.3418409e-38
37.864155 44.703194 0.19247735 2.3418409e-38
37.993458 44.834122 -0.083029747 2.3418409e-38
37.981812 44.859909 -0.084444523 2.3418409e-38
37.934822 44.866058 1.1026435 2.3418409e-38
37.968506 44.884514 -0.085427761 2.3418409e-38
37.908348 44.885025 1.1035138 2.3418409e-38
37.945225 44.906048 -0.084271193 2.3418409e-38
37.927464 44.935905 1.0987597 2.3418409e-38
37.924488 44.927277 -0.083536863 2.3418409e-38
37.92355 44.967606 1.0970306 2.3418409e-38
37.910976 44.951756 -0.084518671 2.3418409e-38
37.803749 44.907887 0.41386938 2.3418409e-38
37.910004 44.992123 1.0965091 2.3418409e-38
37.898949 44.977379 -0.085930586 2.3418409e-38
37.808094 44.94775 0.40899122 2.3418409e-38
37.800915 44.944778 0.87574637 2.3418409e-38
37.874912 44.996078 -0.084331989 2.3418409e-38
37.820095 44.99369 0.40241528 2.3418409e-38
37.802113 44.982399 0.87264943 2.3418409e-38
37.904827 45.025223 1.0947732 2.3418409e-38
37.844631 45.009937 -0.081008911 2.3418409e-38
37.825649 45.034935 0.39719737 2.3418409e-38
37.807869 45.02372 0.86880922 2.3418409e-38
37.911423 45.104866 1.0890878 2.3418409e-38
37.832901 45.037979 -0.08285737 2.3418409e-38
37.832584 45.077477 0.39163971 2.3418409e-38
37.80024 45.053631 0.63366508 2.3418409e-38
37.815018 45.066341 0.86472142 2.3418409e-38
37.916824 45.146629 1.0859432 2.3418409e-38
37.824158 45.068398 -0.085567474 2.3418409e-38
37.840405 45.118744 0.38608909 2.3418409e-38
37.806664 45.093662 0.62914217 2.3418409e-38
37.818356 45.104031 0.86138403 2.3418409e-38
37.918427 45.183418 1.0834099 2.3418409e-38
37.804054 45.087841 -0.084820986 2.3418409e-38
37.849606 45.16132 0.38019896 2.3418409e-38
37.809814 45.131332 0.62520695 2.3418409e-38
37.81842 45.139332 0.85854232 2.3418409e-38
37.810181 45.169209 0.62155855 2.3418409e-38
37.823502 45.180969 0.85470223 2.3418409e-38
37.92458 45.223953 1.0802726 2.3418409e-38
37.852905 45.201702 0.37532032 2.3418409e-38
37.921665 45.259785 1.0781348 2.3418409e-38
37.860661 45.245834 0.36942255 2.3418409e-38
37.818134 45.213295 0.61644077 2.3418409e-38
37.8284 45.222691 0.85086179 2.3418409e-38
37.924839 45.300606 1.0751915 2.3418409e-38
37.857449 45.281456 0.36590302 2.3418409e-38
37.819717 45.252541 0.61249852 2.3418409e-38
37.828472 45.260777 0.84776533 2.3418409e-38
37.924732 45.33902 1.0726513 2.3418409e-38
37.860237 45.322052 0.36102462 2.3418409e-38
37.821136 45.291847 0.60855627 2.3418409e-38
37.834572 45.303894 0.84367716 2.3418409e-38
37.92292 45.376236 1.0703125 2.3418409e-38
37.857834 45.356388 0.35751247 2.3418409e-38
37.831184 45.336075 0.60315144 2.3418409e-38
37.838509 45.343239 0.84009194 2.3418409e-38
37.856834 45.392006 0.35366058 2.3418409e-38
37.825703 45.367924 0.60068631 2.3418409e-38
37.843822 45.383907 0.83625853 2.3418409e-38
37.915886 45.407108 1.0687871 2.3418409e-38
37.919544 45.446785 1.0658514 2.3418409e-38
37.998699 45.506134 0.072911978 2.3418409e-38
37.86372 45.436531 0.34776282 2.3418409e-38
37.822044 45.40366 0.59762621 2.3418409e-38
37.846313 45.424767 0.8326664 2.3418409e-38
37.918831 45.485394 1.0633118 2.3418409e-38
37.959568 45.513702 0.077805281 2.3418409e-38
37.900841 45.506207 0.33506775 2.3418409e-38
37.819771 45.440689 0.59427261 2.3418409e-38
37.847099 45.464432 0.8293221 2.3418409e-38
37.91642 45.522789 1.0609738 2.3418409e-38
37.91592 45.517353 0.083857775 2.3418409e-38
37.864765 45.515808 0.33868623 2.3418409e-38
37.824966 45.484074 0.58944869 2.3418409e-38
37.852303 45.507965 0.8252337 2.3418409e-38
37.91386 45.56023 1.0586358 2.3418409e-38
37.867786 45.517048 0.091068983 2.3418409e-38
37.840813 45.535347 0.33958662 2.3418409e-38
37.813255 45.513611 0.58785963 2.3418409e-38
37.848171 45.543953 0.82263386 2.3418409e-38
37.857414 45.54792 0.088634253 2.3418409e-38
37.84515 45.576225 0.3343761 2.3418409e-38
37.867767 45.596428 0.57363176 2.3418409e-38
37.854168 45.586262 0.81855261 2.3418409e-38
37.840557 45.571117 0.088136673 2.3418409e-38
37.91573 45.601532 1.0556934 2.3418409e-38
37.915535 45.638966 1.0531614 2.3418409e-38
37.873775 45.640152 0.32337928 2.3418409e-38
37.904076 45.66695 0.56263065 2.3418409e-38
37.85125 45.623623 0.81570494 2.3418409e-38
37.917068 45.680397 1.0502192 2.3418409e-38
37.873486 45.638645 0.074509859 2.3418409e-38
37.962204 45.755306 0.29878259 2.3418409e-38
37.888748 45.694229 0.56162989 2.3418409e-38
37.8512 45.663597 0.81236136 2.3418409e-38
37.919945 45.723183 1.0470753 2.3418409e-38
37.882141 45.686119 0.067058325 2.3418409e-38
37.893467 45.732658 0.31023741 2.3418409e-38
37.869659 45.713589 0.56181991 2.3418409e-38
37.851818 45.699596 0.80927968 2.3418409e-38
37.924995 45.763279 1.0439454 2.3418409e-38
37.892937 45.730942 0.059620142 2.3418409e-38
37.890179 45.772846 0.30603266 2.3418409e-38
37.857494 45.746025 0.55993056 2.3418409e-38
37.853283 45.743637 0.8054328 2.3418409e-38
37.89106 45.772343 0.054477453 2.3418409e-38
37.859863 45.788723 0.55540085 2.3418409e-38
37.858742 45.788979 0.8010968 2.3418409e-38
37.923309 45.805008 1.0411983 2.3418409e-38
37.914757 45.834888 0.29571414 2.3418409e-38
37.93317 45.854515 1.0370457 2.3418409e-38
37.905045 45.825241 0.045481205 2.3418409e-38
37.897377 45.860947 0.29491687 2.3418409e-38
37.857571 45.827599 0.55175388 2.3418409e-38
37.853512 45.825294 0.79849815 2.3418409e-38
37.939804 45.901531 1.0332968 2.3418409e-38
37.880268 45.844826 0.046522379 2.3418409e-38
37.912006 45.910137 0.28733218 2.3418409e-38
37.866455 45.871586 0.54635513 2.3418409e-38
37.860996 45.868042 0.79417574 2.3418409e-38
37.94566 45.943253 1.0299652 2.3418409e-38
37.890362 45.889977 0.039084435 2.3418409e-38
37.906231 45.946609 0.28381503 2.3418409e-38
37.866798 45.913193 0.54211986 2.3418409e-38
37.867382 45.914932 0.78959131 2.3418409e-38
37.954887 45.99308 1.0258124 2.3418409e-38
37.90522 45.944462 0.029702187 2.3418409e-38
37.874111 45.958729 0.53671408 2.3418409e-38
37.873291 45.959229 0.78526187 2.3418409e-38
37.893105 45.973026 0.027662516 2.3418409e-38
37.975376 46.046978 0.26329827 2.3418409e-38
37.962139 46.039001 1.0220702 2.3418409e-38
37.929588 46.051064 0.26861763 2.3418409e-38
37.95121 46.071529 0.51687336 2.3418409e-38
37.873596 46.003727 0.78141558 2.3418409e-38
37.971176 46.091766 1.0177087 2.3418409e-38
37.904839 46.027802 0.018659353 2.3418409e-38
37.909828 46.073196 0.26850927 2.3418409e-38
37.889477 46.057453 0.77534771 2.3418409e-38
37.969116 46.129929 1.0151774 2.3418409e-38
37.896088 46.103245 0.26669407 2.3418409e-38
37.897976 46.107395 0.77026653 2.3418409e-38
37.983395 46.185501 1.0102168 2.3418409e-38
37.892044 46.137127 0.26319146 2.3418409e-38
37.91946 46.163151 0.51095641 2.3418409e-38
37.914635 46.160011 0.76420498 2.3418409e-38
37.891026 46.182686 0.51201367 2.3418409e-38
37.98814 46.227745 1.0068848 2.3418409e-38
37.934624 46.223598 0.756881 2.3418409e-38
37.99332 46.278271 1.0029268 2.3418409e-38
37.919056 46.248787 0.50219166 2.3418409e-38
37.953911 46.281921 0.75006688 2.3418409e-38
37.926758 46.301792 0.49588907 2.3418409e-38
37.96891 46.34185 0.74348748 2.3418409e-38
37.965801 46.379032 0.48371041 2.3418409e-38
38.090851 42.096104 0.4116466 2.3418409e-38
38.046795 42.106678 0.41875529 2.3418409e-38
38.15741 42.181717 0.81320035 2.3418409e-38
38.011345 42.121983 0.42394292 2.3418409e-38
38.110352 42.18787 0.81916499 2.3418409e-38
38.031158 42.182938 0.62449408 2.3418409e-38
38.076912 42.202454 0.82278562 2.3418409e-38
38.0453 42.217598 0.82611656 2.3418409e-38
38.005058 42.227486 0.83091307 2.3418409e-38
38.190659 42.548912 -0.076625347 2.3418409e-38
38.186272 42.582954 0.99571431 2.3418409e-38
38.18182 42.573997 -0.077257872 2.3418409e-38
38.166939 42.598145 -0.076477766 2.3418409e-38
38.160419 42.602253 0.99750924 2.3418409e-38
38.138241 42.61797 0.99908769 2.3418409e-38
38.159222 42.620319 -0.077090979 2.3418409e-38
38.116577 42.637241 1.0004033 2.3418409e-38
38.150166 42.645329 -0.077722073 2.3418409e-38
38.092419 42.657013 1.0019559 2.3418409e-38
38.131535 42.66774 -0.075992346 2.3418409e-38
38.068344 42.671619 1.0037826 2.3418409e-38
38.123627 42.689842 -0.076604128 2.3418409e-38
38.048367 42.691414 1.0048554 2.3418409e-38
38.112595 42.713951 -0.076759815 2.3418409e-38
38.028343 42.711124 1.0059292 2.3418409e-38
38.094429 42.734768 -0.075018883 2.3418409e-38
38.010727 42.730186 1.0067673 2.3418409e-38
38.089203 42.759838 -0.076586485 2.3418409e-38
38.081482 42.785492 -0.077688932 2.3418409e-38
38.197327 44.391876 1.5691342 2.3418409e-38
38.090626 44.354134 1.5749475 2.3418409e-38
38.083004 44.383656 1.5742698 2.3418409e-38
38.066982 44.407616 1.5741332 2.3418409e-38
38.078331 44.447994 1.5722747 2.3418409e-38
38.197948 44.519333 -0.07830286 2.3418409e-38
38.104389 44.498566 1.569442 2.3418409e-38
38.179222 44.540035 -0.07757163 2.3418409e-38
38.118393 44.54541 1.567242 2.3418409e-38
38.168175 44.570129 -0.079439163 2.3418409e-38
38.107132 44.568909 1.5669057 2.3418409e-38
38.156738 44.593723 -0.080420971 2.3418409e-38
38.100998 44.59967 1.1060629 2.3418409e-38
38.159588 44.602337 1.101186 2.3418409e-38
38.106007 44.605713 1.5656798 2.3418409e-38
38.134251 44.616016 -0.079273224 2.3418409e-38
38.083675 44.62114 1.1061368 2.3418409e-38
38.083752 44.623772 1.5659862 2.3418409e-38
38.121696 44.640957 -0.080261946 2.3418409e-38
38.022919 44.614307 1.1114268 2.3418409e-38
38.068657 44.64888 1.5657438 2.3418409e-38
38.10487 44.665054 -0.080396652 2.3418409e-38
38.024181 44.647842 1.3388586 2.3418409e-38
38.071793 44.682636 1.5644341 2.3418409e-38
38.089966 44.686272 -0.080515146 2.3418409e-38
38.063663 44.714901 1.563643 2.3418409e-38
38.072006 44.711681 -0.080656528 2.3418409e-38
38.065548 44.750153 1.5623257 2.3418409e-38
38.057568 44.735355 -0.081212282 2.3418409e-38
38.078255 44.797592 1.5601255 2.3418409e-38
38.034691 44.757252 -0.080060005 2.3418409e-38
38.017525 44.781086 -0.080191374 2.3418409e-38
38.080437 44.835571 1.558692 2.3418409e-38
38.08128 44.868443 1.5574908 2.3418409e-38
38.011803 44.808956 -0.082891703 2.3418409e-38
38.086971 44.911484 1.5557241 2.3418409e-38
38.08651 44.945881 1.5545154 2.3418409e-38
38.092342 44.985069 1.5528725 2.3418409e-38
38.097515 45.028355 1.5511057 2.3418409e-38
38.101959 45.069122 1.5494552 2.3418409e-38
38.102509 45.104946 1.548138 2.3418409e-38
38.110886 45.146854 1.5462778 2.3418409e-38
38.110065 45.184216 1.5449531 2.3418409e-38
38.113853 45.225277 1.5433024 2.3418409e-38
38.117462 45.266415 1.5416517 2.3418409e-38
38.122478 45.308849 1.5398924 2.3418409e-38
38.131573 45.352413 1.5379229 2.3418409e-38
38.132633 45.389908 1.5364974 2.3418409e-38
38.138691 45.43383 1.5346289 2.3418409e-38
38.13987 45.474113 1.5330871 2.3418409e-38
38.148682 45.520702 1.531001 2.3418409e-38
38.084805 45.507782 1.2920507 2.3418409e-38
38.149506 45.561134 1.5294592 2.3418409e-38
38.157524 45.605236 1.5274892 2.3418409e-38
38.162262 45.646912 1.525737 2.3418409e-38
38.162575 45.687557 1.5241953 2.3418409e-38
38.16888 45.733345 1.5222179 2.3418409e-38
38.17345 45.777954 1.5203493 2.3418409e-38
38.180893 45.825211 1.5182626 2.3418409e-38
38.192387 45.873707 1.5159651 2.3418409e-38
38.197884 45.919888 1.5139873 2.3418409e-38
38.119198 45.974506 1.2654045 2.3418409e-38
38.10321 46.044819 1.2625203 2.3418409e-38
38.113251 46.09095 1.2594597 2.3418409e-38
38.122105 46.141331 1.2562294 2.3418409e-38
38.13348 46.191727 1.2528503 2.3418409e-38
38.146576 46.249065 1.2489903 2.3418409e-38
38.05378 46.203178 0.49233484 2.3418409e-38
38.163429 46.305035 1.2449883 2.3418409e-38
38.004395 46.20192 0.4978112 2.3418409e-38
38.199707 46.37508 -0.070386171 2.3418409e-38
38.181786 46.397858 -0.070876837 2.3418409e-38
38.156998 46.422226 -0.070614815 2.3418409e-38
38.144875 46.452946 -0.073042393 2.3418409e-38
38.043587 46.411892 0.98977315 2.3418409e-38
38.114151 46.471874 -0.071233749 2.3418409e-38
38.06662 46.474907 0.98360622 2.3418409e-38
38.096085 46.497192 -0.072114706 2.3418409e-38
38.001579 46.45385 0.47211981 2.3418409e-38
38.017746 46.470139 0.72786939 2.3418409e-38
38.080811 46.525139 -0.073767424 2.3418409e-38
38.021378 46.519554 0.46316576 2.3418409e-38
38.054214 46.547829 -0.07311511 2.3418409e-38
38.030304 46.57037 -0.072841644 2.3418409e-38
38.011833 46.592735 -0.073326826 2.3418409e-38
38.399773 42.017651 -0.072610855 2.3418409e-38
38.380302 42.03714 -0.069932222 2.3418409e-38
38.378502 42.064686 -0.071993351 2.3418409e-38
38.392925 42.104343 0.57292402 2.3418409e-38
38.377892 42.094383 -0.074537516 2.3418409e-38
38.323776 42.103588 0.58387864 2.3418409e-38
38.369713 42.116325 -0.07468605 2.3418409e-38
38.345776 42.11034 0.36469638 2.3418409e-38
38.275745 42.113708 0.59077859 2.3418409e-38
38.353981 42.144577 0.78885663 2.3418409e-38
38.353104 42.138432 -0.072960854 2.3418409e-38
38.397106 42.157909 0.3519063 2.3418409e-38
38.225338 42.12431 0.59800744 2.3418409e-38
38.307034 42.156761 0.79449356 2.3418409e-38
38.348598 42.166748 -0.074557304 2.3418409e-38
38.239582 42.155861 0.8036505 2.3418409e-38
38.334789 42.186531 -0.073284626 2.3418409e-38
38.228306 42.179596 0.80377722 2.3418409e-38
38.316181 42.207775 -0.071084499 2.3418409e-38
38.346436 42.254017 0.57025695 2.3418409e-38
38.325928 42.241661 -0.07646656 2.3418409e-38
38.304829 42.262894 0.57617116 2.3418409e-38
38.308319 42.259918 -0.074245214 2.3418409e-38
38.296753 42.283863 -0.073936701 2.3418409e-38
38.288727 42.309208 -0.074574232 2.3418409e-38
38.281204 42.333088 -0.075201988 2.3418409e-38
38.273617 42.356953 -0.075829268 2.3418409e-38
38.258171 42.379299 -0.074571371 2.3418409e-38
38.393639 42.471107 0.97868478 2.3418409e-38
38.251652 42.405293 -0.075680733 2.3418409e-38
38.363125 42.487606 0.98121595 2.3418409e-38
38.243252 42.430531 -0.076316118 2.3418409e-38
38.322823 42.501556 0.98496473 2.3418409e-38
38.227005 42.454178 -0.075065851 2.3418409e-38
38.297157 42.516373 0.98702776 2.3418409e-38
38.21431 42.474209 -0.074260473 2.3418409e-38
38.270851 42.532524 0.98908222 2.3418409e-38
38.218826 42.50325 -0.078201294 2.3418409e-38
38.23719 42.550514 0.99184501 2.3418409e-38
38.201752 42.528206 -0.076958418 2.3418409e-38
38.216919 42.567333 0.99317527 2.3418409e-38
38.396126 44.235798 -0.079212189 2.3418409e-38
38.370575 44.254478 -0.076776981 2.3418409e-38
38.3582 44.281399 -0.077782393 2.3418409e-38
38.3783 44.336544 1.5632493 2.3418409e-38
38.346664 44.306835 -0.078778505 2.3418409e-38
38.343925 44.349525 1.5642924 2.3418409e-38
38.320961 44.325283 -0.076340675 2.3418409e-38
38.363243 44.397003 1.5618818 2.3418409e-38
38.316566 44.357372 -0.079495907 2.3418409e-38
38.295662 44.37886 -0.078347206 2.3418409e-38
38.340477 44.41745 1.5621705 2.3418409e-38
38.296886 44.42215 1.5638728 2.3418409e-38
38.283836 44.40416 -0.079341412 2.3418409e-38
38.264446 44.426594 -0.078621864 2.3418409e-38
38.250839 44.450748 -0.079184532 2.3418409e-38
38.378181 44.577572 1.0849953 2.3418409e-38
38.236206 44.476307 -0.079754829 2.3418409e-38
38.333469 44.583588 1.0882657 2.3418409e-38
38.218246 44.499657 -0.07946372 2.3418409e-38
38.284821 44.584599 1.0921479 2.3418409e-38
38.255997 44.598789 1.0936229 2.3418409e-38
38.200542 44.5989 1.0980942 2.3418409e-38
38.218315 46.016144 1.5095004 2.3418409e-38
38.22197 46.064056 1.5075152 2.3418409e-38
38.253841 46.134132 1.503572 2.3418409e-38
38.571484 42.082352 0.32596993 2.3418409e-38
38.502613 42.085941 0.55679071 2.3418409e-38
38.56142 42.108757 0.76279306 2.3418409e-38
38.487141 42.078846 0.34148431 2.3418409e-38
38.441551 42.092186 0.56603849 2.3418409e-38
38.500107 42.115097 0.77075601 2.3418409e-38
38.459492 42.097282 0.34513736 2.3418409e-38
38.477253 42.13699 0.77260911 2.3418409e-38
38.427582 42.115692 0.34954643 2.3418409e-38
38.400387 42.133595 0.78321183 2.3418409e-38
38.530758 44.014015 -0.077898741 2.3418409e-38
38.519154 44.041317 -0.078910112 2.3418409e-38
38.494831 44.06308 -0.076919794 2.3418409e-38
38.479824 44.084316 -0.076622248 2.3418409e-38
38.587158 44.19331 1.558908 2.3418409e-38
38.467995 44.111496 -0.077631474 2.3418409e-38
38.456078 44.138649 -0.078640461 2.3418409e-38
38.43998 44.161243 -0.078349829 2.3418409e-38
38.419586 44.183212 -0.077207088 2.3418409e-38
38.549522 44.205269 1.5601575 2.3418409e-38
38.511101 44.21452 1.5615249 2.3418409e-38
38.500679 44.242901 1.5610528 2.3418409e-38
38.469803 44.258621 1.5618749 2.3418409e-38
38.410759 44.212311 -0.079074383 2.3418409e-38
38.453381 44.2812 1.5618441 2.3418409e-38
38.43597 44.305199 1.5618054 2.3418409e-38
38.443802 44.345165 1.5601491 2.3418409e-38
38.499908 44.552101 1.0765898 2.3418409e-38
38.460094 44.562 1.0792537 2.3418409e-38
38.434547 44.579025 1.0803221 2.3418409e-38
38.741989 42.030281 0.29874623 2.3418409e-38
38.798264 42.078907 0.51039064 2.3418409e-38
38.713066 42.047565 0.30278361 2.3418409e-38
38.674328 42.062965 0.30872297 2.3418409e-38
38.750717 42.120518 0.73640931 2.3418409e-38
38.615768 42.069405 0.3188796 2.3418409e-38
38.638988 42.109623 0.75220847 2.3418409e-38
38.787376 44.141979 1.5518036 2.3418409e-38
38.750599 44.153328 1.5530548 2.3418409e-38
38.699181 44.157883 1.5551591 2.3418409e-38
38.655487 44.168808 1.5567183 2.3418409e-38
38.621372 44.179115 1.5578753 2.3418409e-38
38.963615 44.140594 1.544101 2.3418409e-38
38.892967 44.135216 1.5473797 2.3418409e-38
38.838036 44.134407 1.5498196 2.3418409e-38
39.179268 44.120422 1.5351979 2.3418409e-38
39.151833 44.140793 1.5357835 2.3418409e-38
39.127834 44.163013 1.5361555 2.3418409e-38
39.044785 44.151531 1.5401804 2.3418409e-38
