# .PCD v0.7 - Point Cloud Data file format
VERSION 0.7
FIELDS x y z rgb
SIZE 4 4 4 4
TYPE F F F F
COUNT 1 1 1 1
WIDTH 76
HEIGHT 1
VIEWPOINT 0 0 0 1 0 0 0
POINTS 76
DATA ascii
33.196609 38.809322 0.18734622 2.3418409e-38
33.197441 38.81852 0.2873106 2.3418409e-38
33.191105 38.819679 0.38763142 2.3418409e-38
33.190704 38.828144 0.19129574 2.3418409e-38
33.187519 38.829144 0.29313838 2.3418409e-38
33.196896 38.829445 0.38471472 2.3418409e-38
33.187725 38.837807 0.19326866 2.3418409e-38
33.187969 38.838619 0.29306006 2.3418409e-38
33.18502 38.839569 0.39124823 2.3418409e-38
33.184669 38.846336 0.19525087 2.3418409e-38
33.193558 38.846733 0.29003513 2.3418409e-38
33.188915 38.847755 0.38928986 2.3418409e-38
33.181633 38.855961 0.19722438 2.3418409e-38
33.187 38.856541 0.29389811 2.3418409e-38
33.191071 38.857155 0.38826692 2.3418409e-38
33.183739 38.865906 0.19611609 2.3418409e-38
33.196083 38.866211 0.28888845 2.3418409e-38
33.193222 38.867126 0.38723958 2.3418409e-38
33.189205 38.874615 0.19296515 2.3418409e-38
33.199883 38.875019 0.28684402 2.3418409e-38
33.193542 38.87606 0.38716602 2.3418409e-38
33.198093 38.883785 0.18775785 2.3418409e-38
33.193855 38.885555 0.38708794 2.3418409e-38
33.354866 38.601784 0.084396362 2.3418409e-38
33.354343 38.612545 0.085331202 2.3418409e-38
33.357136 38.62233 0.08422184 2.3418409e-38
33.359776 38.630951 0.083122253 2.3418409e-38
33.36087 38.641529 0.083032608 2.3418409e-38
33.363518 38.650757 0.081928015 2.3418409e-38
33.35931 38.66069 0.084923506 2.3418409e-38
33.362015 38.671101 0.083809376 2.3418409e-38
33.3578 38.681583 0.08679986 2.3418409e-38
33.353451 38.690868 0.089801073 2.3418409e-38
33.356014 38.700687 0.088692188 2.3418409e-38
33.363731 38.710667 0.084502697 2.3418409e-38
33.364433 38.71949 0.084428549 2.3418409e-38
33.365246 38.730083 0.084339857 2.3418409e-38
33.362602 38.740944 0.086301804 2.3418409e-38
33.361515 38.749893 0.087253571 2.3418409e-38
33.36562 38.759644 0.085119247 2.3418409e-38
33.364555 38.769772 0.086061478 2.3418409e-38
33.353111 38.779388 0.093166113 2.3418409e-38
33.238792 38.78857 0.36142087 2.3418409e-38
33.238884 38.79657 0.16179204 2.3418409e-38
33.231171 38.797897 0.26776218 2.3418409e-38
33.246758 38.798538 0.45339811 2.3418409e-38
33.202412 38.800503 0.38117337 2.3418409e-38
33.203941 38.809719 0.28343964 2.3418409e-38
33.204739 38.810478 0.38014531 2.3418409e-38
33.236645 38.809387 0.45873284 2.3418409e-38
33.228188 38.818375 0.46317923 2.3418409e-38
33.219791 38.82901 0.46761167 2.3418409e-38
33.220245 38.838581 0.46753252 2.3418409e-38
33.218842 38.847111 0.46836638 2.3418409e-38
33.222805 38.856522 0.46648037 2.3418409e-38
33.233898 38.866222 0.46097553 2.3418409e-38
33.236004 38.875198 0.45999742 2.3418409e-38
33.208893 38.884216 0.28183854 2.3418409e-38
33.243454 38.884563 0.45630395 2.3418409e-38
33.20866 38.892387 0.18152881 2.3418409e-38
33.224815 38.892677 0.27289546 2.3418409e-38
33.211742 38.893909 0.37756622 2.3418409e-38
33.26334 38.892998 0.44628894 2.3418409e-38
33.227779 38.900787 0.17016959 2.3418409e-38
33.287685 38.899792 0.23734212 2.3418409e-38
33.345894 38.898846 0.30568194 2.3418409e-38
33.329277 38.908157 0.10955226 2.3418409e-38
33.363811 38.917213 0.088950396 2.3418409e-38
33.369133 38.926514 0.085795403 2.3418409e-38
33.364147 38.937218 0.088787079 2.3418409e-38
33.364258 38.946041 0.088715076 2.3418409e-38
33.367783 38.95541 0.086586237 2.3418409e-38
33.364422 38.966049 0.088552475 2.3418409e-38
33.369606 38.976017 0.085392475 2.3418409e-38
33.374767 38.984833 0.082241774 2.3418409e-38
33.367882 38.994877 0.086266279 2.3418409e-38
