# .PCD v0.7 - Point Cloud Data file format
VERSION 0.7
FIELDS x y z rgb
SIZE 4 4 4 4
TYPE F F F F
COUNT 1 1 1 1
WIDTH 340
HEIGHT 1
VIEWPOINT 0 0 0 1 0 0 0
POINTS 340
DATA ascii
39.201298 39.873688 0.093375444 2.3509528e-38
39.373272 39.919876 0.28284109 2.3509528e-38
39.207359 39.931099 0.090393543 2.3509528e-38
39.204845 39.955219 0.0902071 2.3509528e-38
39.209614 40.037098 0.086615801 2.3509528e-38
39.382168 40.058285 0.27724397 2.3509528e-38
39.210331 40.064888 0.085556507 2.3509528e-38
39.388695 40.087265 0.27513397 2.3509528e-38
39.218533 40.095222 0.082786083 2.3509528e-38
39.391037 40.11747 0.27377009 2.3509528e-38
39.223152 40.121925 0.080889702 2.3509528e-38
39.395638 40.144661 0.27205193 2.3509528e-38
39.337864 40.170971 1.1785619 2.3509528e-38
39.223816 40.148178 0.079843044 2.3509528e-38
39.396259 40.171394 0.27109241 2.3509528e-38
39.336304 40.198933 1.1781552 2.3509528e-38
39.226135 40.176304 0.078359365 2.3509528e-38
39.39854 40.200035 0.2697413 2.3509528e-38
39.228584 40.202839 0.076888084 2.3509528e-38
39.386066 40.255211 0.49906039 2.3509528e-38
39.352871 40.255882 1.1754048 2.3509528e-38
39.234612 40.231529 0.074554682 2.3509528e-38
39.232582 40.260818 0.073908806 2.3509528e-38
39.238659 40.287964 0.071588039 2.3509528e-38
39.23885 40.314327 0.070542097 2.3509528e-38
39.238491 40.343929 0.069471836 2.3509528e-38
39.24094 40.367374 0.068025589 2.3509528e-38
39.242344 40.397301 0.066530704 2.3509528e-38
39.259354 40.428013 0.061646461 2.3509528e-38
39.249493 40.452972 0.062727213 2.3509528e-38
39.254738 40.481976 0.060394287 2.3509528e-38
39.258236 40.50909 0.058498621 2.3509528e-38
39.255596 40.536896 0.05786705 2.3509528e-38
39.264435 40.56665 0.054683208 2.3509528e-38
39.263546 40.594818 0.053626776 2.3509528e-38
39.272202 40.624676 0.050442457 2.3509528e-38
39.279125 40.652637 0.047696352 2.3509528e-38
39.378159 40.705814 1.1627507 2.3509528e-38
39.272503 40.678215 0.047928572 2.3509528e-38
39.281189 40.706596 0.044756413 2.3509528e-38
39.385429 40.764763 1.1605749 2.3509528e-38
39.283413 40.737206 0.042837381 2.3509528e-38
39.391548 40.79649 1.1591811 2.3509528e-38
39.279778 40.76675 0.04219532 2.3509528e-38
39.286587 40.793278 0.039460659 2.3509528e-38
39.386688 40.848347 0.70574081 2.3509528e-38
39.365379 40.847488 1.1603483 2.3509528e-38
39.292362 40.824726 0.036689997 2.3509528e-38
39.398594 40.879696 0.7029388 2.3509528e-38
39.394444 40.880539 0.92989993 2.3509528e-38
39.393009 40.881924 1.1568117 2.3509528e-38
39.29644 40.854221 0.034357071 2.3509528e-38
39.299503 40.878494 0.032486439 2.3509528e-38
39.303074 40.909687 0.030141354 2.3509528e-38
39.303055 40.938499 0.028660536 2.3509528e-38
39.303295 40.965702 0.027191877 2.3509528e-38
39.314217 40.998631 0.023143291 2.3509528e-38
39.404846 40.227562 0.26764405 2.3509528e-38
39.405014 40.256001 0.26667249 2.3509528e-38
39.42432 40.288754 0.26189387 2.3509528e-38
39.408974 40.313454 0.26397085 2.3509528e-38
39.409119 40.340294 0.26301217 2.3509528e-38
39.408699 40.370434 0.26202893 2.3509528e-38
39.446079 40.399479 0.25388265 2.3509528e-38
39.512634 40.441673 0.47212768 2.3509528e-38
39.551083 40.449238 0.69530141 2.3509528e-38
39.464886 40.432693 0.24910223 2.3509528e-38
39.470253 40.462284 0.24699152 2.3509528e-38
39.475788 40.490269 0.24489331 2.3509528e-38
39.467625 40.521267 0.70503819 2.3509528e-38
39.523632 40.526787 0.23442709 2.3509528e-38
39.550293 40.558456 0.22814965 2.3509528e-38
39.431572 40.710457 0.47607768 2.3509528e-38
39.404179 40.736019 0.93312681 2.3509528e-38
39.421349 40.797138 0.47443938 2.3509528e-38
39.401131 40.794968 0.70556486 2.3509528e-38
39.424183 40.795963 0.24223173 2.3509528e-38
39.425194 40.821762 0.24090815 2.3509528e-38
39.588921 40.884708 0.2072221 2.3509528e-38
39.461269 40.890537 0.464136 2.3509528e-38
39.409821 40.909229 1.1544864 2.3509528e-38
39.424572 40.94141 0.92442012 2.3509528e-38
39.411552 40.940399 1.1534843 2.3509528e-38
39.41547 40.970364 1.1522987 2.3509528e-38
39.474552 41.121468 0.45216537 2.3509528e-38
39.464546 41.120911 0.6846031 2.3509528e-38
39.42202 41.113045 0.91908932 2.3509528e-38
39.411076 41.112255 1.1487496 2.3509528e-38
39.421112 41.14397 0.91814518 2.3509528e-38
39.551575 41.228191 0.6681118 2.3509528e-38
39.446392 41.236656 0.91196024 2.3509528e-38
39.464661 41.242649 1.1398833 2.3509528e-38
39.472649 41.384968 0.67269218 2.3509528e-38
39.511971 41.42659 0.89740908 2.3509528e-38
39.455219 41.413773 1.1355581 2.3509528e-38
39.458057 41.442665 1.1343849 2.3509528e-38
39.460373 41.47324 1.1331999 2.3509528e-38
39.478592 41.686035 1.1245363 2.3509528e-38
39.482986 41.714134 1.123178 2.3509528e-38
39.48777 41.747799 1.1215875 2.3509528e-38
39.402145 41.834415 -0.046735764 2.3509528e-38
39.540916 41.908752 0.40177441 2.3509528e-38
39.516911 41.903091 0.64272666 2.3509528e-38
39.503403 41.991398 1.1115687 2.3509528e-38
39.400879 41.950924 -0.054744244 2.3509528e-38
39.558838 42.003883 0.39348149 2.3509528e-38
39.556828 42.036304 0.39192915 2.3509528e-38
39.516121 42.025024 0.63673115 2.3509528e-38
39.50721 42.025475 1.1099786 2.3509528e-38
39.401176 42.014305 -0.059417248 2.3509528e-38
39.517567 42.179558 1.1033049 2.3509528e-38
39.560772 42.255798 0.6185565 2.3509528e-38
39.528912 42.276108 1.0985805 2.3509528e-38
39.526253 42.340183 1.3324893 2.3509528e-38
39.521847 42.400375 1.3309011 2.3509528e-38
39.546833 42.469837 1.089329 2.3509528e-38
39.553288 42.504326 1.0873543 2.3509528e-38
39.551537 42.537788 1.0861605 2.3509528e-38
39.564594 42.571144 1.0836139 2.3509528e-38
39.535587 42.594212 1.3237007 2.3509528e-38
39.538898 42.658371 1.3213553 2.3509528e-38
39.541 42.6917 1.3201011 2.3509528e-38
39.567345 42.763809 1.0753546 2.3509528e-38
39.570908 42.798065 1.073578 2.3509528e-38
39.728855 39.569004 1.6058767 2.3509528e-38
39.687477 39.59026 1.3815353 2.3509528e-38
39.756046 39.598034 1.8331587 2.3509528e-38
39.683567 39.620567 1.3814433 2.3509528e-38
39.677555 39.621964 1.6078678 2.3509528e-38
39.720196 39.626499 1.833846 2.3509528e-38
39.687637 39.649704 1.380774 2.3509528e-38
39.669678 39.650276 1.6079463 2.3509528e-38
39.694351 39.653725 1.8342754 2.3509528e-38
39.701683 39.677872 1.3793793 2.3509528e-38
39.675781 39.677837 1.6073284 2.3509528e-38
39.700459 39.681355 1.8338438 2.3509528e-38
39.703598 39.708729 1.6055807 2.3509528e-38
39.696396 39.709988 1.8336729 2.3509528e-38
39.715775 39.713181 2.0593345 2.3509528e-38
39.764141 39.742371 1.8315425 2.3509528e-38
39.701782 39.739395 2.0591724 2.3509528e-38
39.685722 39.765381 2.0590193 2.3509528e-38
39.69722 39.796955 2.0587223 2.3509528e-38
39.709366 39.799717 2.2848313 2.3509528e-38
39.778507 39.832851 2.0581396 2.3509528e-38
39.69899 39.827839 2.2844551 2.3509528e-38
39.686684 39.854038 2.2840548 2.3509528e-38
39.709999 39.885132 2.2843225 2.3509528e-38
39.739346 39.915237 2.2847161 2.3509528e-38
39.772583 39.945892 2.2851839 2.3509528e-38
39.753357 40.363335 0.43460882 2.3509528e-38
39.786564 40.39587 0.4280653 2.3509528e-38
39.764526 40.424065 0.43083417 2.3509528e-38
39.725872 40.442726 0.4366585 2.3509528e-38
39.766953 40.483757 0.89693058 2.3509528e-38
39.777069 40.57275 0.89338541 2.3509528e-38
39.611443 40.597752 0.21502078 2.3509528e-38
39.766094 40.656834 0.65833092 2.3509528e-38
39.64727 40.633163 0.20682859 2.3509528e-38
39.733795 40.681103 0.6621474 2.3509528e-38
39.748764 40.680141 0.18571615 2.3509528e-38
39.657562 40.808983 0.19759071 2.3509528e-38
39.765652 41.040176 0.64520586 2.3509528e-38
39.734959 41.117382 0.16889191 2.3509528e-38
39.713249 41.142891 0.17172563 2.3509528e-38
39.72213 41.175148 0.16846991 2.3509528e-38
39.69516 41.204624 0.6488589 2.3509528e-38
39.753494 41.214397 0.16063285 2.3509528e-38
39.796341 41.281788 0.14919376 2.3509528e-38
39.765163 41.308681 0.39610338 2.3509528e-38
39.771877 41.308514 0.15239799 2.3509528e-38
39.778637 41.337132 0.39258182 2.3509528e-38
39.697418 41.315979 0.16593635 2.3509528e-38
39.750122 41.362751 0.39604366 2.3509528e-38
39.642342 41.3349 0.17523885 2.3509528e-38
39.720051 41.386047 0.39985383 2.3509528e-38
39.625793 41.361183 0.17693686 2.3509528e-38
39.62632 41.391644 0.1752069 2.3509528e-38
39.710976 41.414417 0.39998078 2.3509528e-38
39.779503 41.458748 0.14300644 2.3509528e-38
39.689865 41.470276 0.63865316 2.3509528e-38
39.742298 41.512661 0.62949252 2.3509528e-38
39.649975 41.579044 0.4017843 2.3509528e-38
39.798836 41.736668 0.12365055 2.3509528e-38
39.797699 41.769596 0.12190664 2.3509528e-38
39.790371 41.795254 0.12172508 2.3509528e-38
39.785263 41.82711 0.12074471 2.3509528e-38
39.784325 41.858353 0.11901379 2.3509528e-38
39.780529 41.885086 0.11807013 2.3509528e-38
39.758202 41.911888 0.12052536 2.3509528e-38
39.74947 41.940849 0.12032211 2.3509528e-38
39.74493 41.969227 0.11936784 2.3509528e-38
39.747288 42.001614 0.11687505 2.3509528e-38
39.7407 42.029423 0.11630321 2.3509528e-38
39.726536 42.054867 0.11725879 2.3509528e-38
39.728069 42.088993 0.1147548 2.3509528e-38
39.711334 42.115467 0.11608171 2.3509528e-38
39.702003 42.144287 0.11588168 2.3509528e-38
39.693138 42.171387 0.11569405 2.3509528e-38
39.698551 42.205078 0.11243904 2.3509528e-38
39.684498 42.228615 0.11340964 2.3509528e-38
39.676117 42.25967 0.112818 2.3509528e-38
39.675652 42.29155 0.11070979 2.3509528e-38
39.664783 42.480511 0.83489013 2.3509528e-38
39.863239 40.408604 0.65192091 2.3509528e-38
39.852856 40.438744 0.65254903 2.3509528e-38
39.837536 40.461079 0.65409338 2.3509528e-38
39.824867 40.550529 0.8882829 2.3509528e-38
39.850063 40.727737 0.16459918 2.3509528e-38
39.862556 40.758354 0.16097343 2.3509528e-38
39.851765 40.784859 0.16190839 2.3509528e-38
39.923943 40.826599 0.14649832 2.3509528e-38
39.918278 40.980053 0.14083171 2.3509528e-38
39.895306 41.002445 0.38806522 2.3509528e-38
39.903748 41.002354 0.14255464 2.3509528e-38
39.905052 41.035061 0.14080369 2.3509528e-38
39.891235 41.062855 0.14210939 2.3509528e-38
39.920582 41.101494 0.62104928 2.3509528e-38
39.898842 41.09333 0.13924301 2.3509528e-38
39.836494 41.112484 0.15005088 2.3509528e-38
39.80415 41.254696 0.39218545 2.3509528e-38
39.801201 41.252254 0.14978576 2.3509528e-38
39.842522 41.505695 0.12869787 2.3509528e-38
39.90686 41.556835 0.84638309 2.3509528e-38
39.831635 41.532211 0.12926292 2.3509528e-38
39.833534 41.563866 0.12714791 2.3509528e-38
39.820141 41.591549 0.12808263 2.3509528e-38
39.941673 41.625397 0.35204744 2.3509528e-38
39.956741 41.631126 0.59435976 2.3509528e-38
39.960545 41.633873 0.83720291 2.3509528e-38
39.878189 41.613823 1.0895008 2.3509528e-38
39.935471 41.657093 0.59617436 2.3509528e-38
39.941151 41.660347 0.83845186 2.3509528e-38
39.951115 41.664753 1.0810231 2.3509528e-38
39.960133 41.670605 1.561559 2.3509528e-38
39.963345 41.673191 1.803021 2.3509528e-38
39.970753 41.676891 2.0425093 2.3509528e-38
39.992104 41.684338 2.282567 2.3509528e-38
39.816154 41.621708 0.12711203 2.3509528e-38
39.819714 41.653839 0.3704133 2.3509528e-38
39.903145 41.678127 0.5997386 2.3509528e-38
39.925987 41.686035 0.83922744 2.3509528e-38
39.928242 41.688381 1.0824001 2.3509528e-38
39.934456 41.69178 1.3224643 2.3509528e-38
39.931419 41.692665 1.5625082 2.3509528e-38
39.926895 41.693153 1.8036865 2.3509528e-38
39.932358 41.696339 2.0424895 2.3509528e-38
39.961414 41.705936 2.281945 2.3509528e-38
39.814438 41.650661 0.12577283 2.3509528e-38
39.911129 41.708294 0.35278261 2.3509528e-38
39.889866 41.70422 0.60040998 2.3509528e-38
39.905018 41.710087 0.84073412 2.3509528e-38
39.899559 41.710323 1.0843689 2.3509528e-38
39.90765 41.714249 1.3237739 2.3509528e-38
39.90844 41.716167 1.5631456 2.3509528e-38
39.909687 41.718224 1.8037773 2.3509528e-38
39.905502 41.718773 2.0424042 2.3509528e-38
39.9249 41.725796 2.281219 2.3509528e-38
39.816422 41.680664 0.12367082 2.3509528e-38
39.884483 41.730724 0.35593927 2.3509528e-38
39.868893 41.728149 0.60223997 2.3509528e-38
39.891644 41.73616 0.84126782 2.3509528e-38
39.89193 41.737965 1.0841725 2.3509528e-38
39.898094 41.741379 1.3237278 2.3509528e-38
39.88348 41.739029 1.5638885 2.3509528e-38
39.880859 41.740009 1.804215 2.3509528e-38
39.895943 41.745888 2.0422189 2.3509528e-38
39.911472 41.751892 2.2809165 2.3509528e-38
39.810745 41.708607 0.12309468 2.3509528e-38
39.886055 41.769665 1.3238208 2.3509528e-38
39.867607 41.76619 1.5640981 2.3509528e-38
39.893642 41.778584 2.2805321 2.3509528e-38
39.88271 41.795383 0.35282767 2.3509528e-38
39.867203 41.792725 0.59949601 2.3509528e-38
39.849854 41.789528 0.84400547 2.3509528e-38
39.883041 41.802349 1.3231483 2.3509528e-38
39.874222 41.801544 1.5630426 2.3509528e-38
39.871616 41.802505 1.8035562 2.3509528e-38
39.875134 41.805191 2.0418131 2.3509528e-38
39.894485 41.812382 2.2804875 2.3509528e-38
39.826031 41.807182 0.36136615 2.3509528e-38
39.810356 41.80442 0.60684276 2.3509528e-38
39.878754 41.825687 0.83919477 2.3509528e-38
39.875656 41.82822 1.3229653 2.3509528e-38
39.872604 41.829041 1.5625463 2.3509528e-38
39.875771 41.83165 1.8030266 2.3509528e-38
39.875443 41.833241 2.0415847 2.3509528e-38
39.889015 41.838825 2.2803392 2.3509528e-38
39.889687 41.865902 1.3209355 2.3509528e-38
39.863655 41.860046 1.5623271 2.3509528e-38
39.876419 41.865448 1.8025184 2.3509528e-38
39.874176 41.866482 2.0413201 2.3509528e-38
39.887733 41.872105 2.2802598 2.3509528e-38
39.916481 41.89872 0.34181714 2.3509528e-38
39.89933 41.895435 0.59019768 2.3509528e-38
39.906971 41.899387 0.83292091 2.3509528e-38
39.89785 41.898441 1.0782062 2.3509528e-38
39.898346 41.900284 1.31937 2.3509528e-38
39.880028 41.896606 1.5607609 2.3509528e-38
39.879379 41.898117 1.8019645 2.3509528e-38
39.879059 41.899708 2.0410333 2.3509528e-38
39.896442 41.906498 2.2803679 2.3509528e-38
39.957989 41.939198 0.33290958 2.3509528e-38
39.941029 41.935928 0.58248258 2.3509528e-38
39.946915 41.939388 0.82664561 2.3509528e-38
39.932198 41.936768 1.0736851 2.3509528e-38
39.928951 41.937511 1.3161682 2.3509528e-38
39.903042 41.931538 1.5589045 2.3509528e-38
39.906254 41.934193 1.80074 2.3509528e-38
39.896362 41.932949 2.0407019 2.3509528e-38
39.907974 41.93808 2.2805347 2.3509528e-38
39.950226 41.977844 1.3135328 2.3509528e-38
39.993263 41.992432 1.5532423 2.3509528e-38
39.9506 41.981369 1.7988987 2.3509528e-38
39.946487 41.981827 2.0401258 2.3509528e-38
39.954247 41.985851 2.2813277 2.3509528e-38
39.975433 42.398716 0.80330765 2.3509528e-38
39.91008 42.438625 0.56098461 2.3509528e-38
39.957508 42.456787 0.80266929 2.3509528e-38
39.896667 42.464993 0.56137586 2.3509528e-38
39.903687 42.502193 0.80667639 2.3509528e-38
39.897579 42.531181 0.8059988 2.3509528e-38
40.010498 41.65229 1.5594767 2.3509528e-38
40.023415 41.657448 1.8016794 2.3509528e-38
40.048244 41.66576 2.0423212 2.3509528e-38
40.065731 41.672127 2.2839799 2.3509528e-38
40.165565 42.078678 1.791907 2.3509528e-38
40.196899 42.337997 0.271752 2.3509528e-38
40.156956 42.358353 0.27691865 2.3509528e-38
40.188232 42.370461 0.52657843 2.3509528e-38
40.141098 42.418091 0.27584314 2.3509528e-38
40.007683 42.406258 0.29781878 2.3509528e-38
40.080933 42.566601 1.0366495 2.3509528e-38
40.329895 42.086117 0.52141452 2.3509528e-38
40.399323 42.237904 0.50434744 2.3509528e-38
40.339939 42.318947 0.24999213 2.3509528e-38
40.328125 42.349022 0.25011516 2.3509528e-38
40.405907 42.142513 0.50815868 2.3509528e-38
40.504478 42.174099 0.75235188 2.3509528e-38
40.463268 42.193581 0.75629139 2.3509528e-38
