# .PCD v0.7 - Point Cloud Data file format
VERSION 0.7
FIELDS x y z rgb
SIZE 4 4 4 4
TYPE F F F F
COUNT 1 1 1 1
WIDTH 113
HEIGHT 1
VIEWPOINT 0 0 0 1 0 0 0
POINTS 113
DATA ascii
47.738503 34.417614 1.2189634 1.8874076e-38
47.760887 34.464699 1.2180356 1.8874076e-38
47.798271 34.514671 1.2163786 1.8874076e-38
47.856194 33.43 1.2086535 1.8874076e-38
47.921989 33.413528 1.6450368 1.8874076e-38
47.89267 33.480244 1.2071838 1.8874076e-38
48.184052 33.623024 1.6379883 1.8874076e-38
48.119568 33.646111 2.0783124 1.8874076e-38
48.161446 33.680756 1.1952772 1.8874076e-38
48.158688 33.685619 1.6385472 1.8874076e-38
48.167076 33.687187 2.0778091 1.8874076e-38
48.184883 33.739918 1.637781 1.8874076e-38
48.168304 33.748726 2.077306 1.8874076e-38
48.265896 33.826859 1.6355324 1.8874076e-38
48.251232 33.835026 2.0763092 1.8874076e-38
48.274345 33.886425 1.635205 1.8874076e-38
48.263515 33.893467 2.0757916 1.8874076e-38
48.279789 33.943336 1.6349566 1.8874076e-38
48.270874 33.949806 2.0753086 1.8874076e-38
48.28524 33.993324 1.6347177 1.8874076e-38
48.280174 33.998711 2.0748789 1.8874076e-38
48.297005 34.051842 1.6342943 1.8874076e-38
48.28421 34.059292 2.0743737 1.8874076e-38
48.301086 34.105541 1.6340766 1.8874076e-38
48.286339 34.113468 2.0739272 1.8874076e-38
48.30114 34.160248 1.6339581 1.8874076e-38
48.294113 34.16608 2.073473 1.8874076e-38
48.248291 34.227547 0.75399292 1.8874076e-38
48.306568 34.220295 1.6336843 1.8874076e-38
48.29953 34.226101 2.0729673 1.8874076e-38
48.312088 34.273438 1.6334196 1.8874076e-38
48.305046 34.279217 2.0725172 1.8874076e-38
48.321335 34.325584 1.6330568 1.8874076e-38
48.304588 34.333809 2.0720766 1.8874076e-38
48.320404 34.387074 1.6329334 1.8874076e-38
48.30946 34.393776 2.071573 1.8874076e-38
48.298279 34.446945 1.6333634 1.8874076e-38
48.316429 34.446369 2.0711219 1.8874076e-38
48.312622 34.489727 0.75177717 1.8874076e-38
48.241013 34.515247 1.6346868 1.8874076e-38
48.311592 34.501827 2.0706902 1.8874076e-38
48.326893 34.555141 1.6323376 1.8874076e-38
48.312023 34.562672 2.0701954 1.8874076e-38
48.340942 34.59803 0.75065851 1.8874076e-38
48.331444 34.608204 1.632077 1.8874076e-38
48.314617 34.616154 2.0697529 1.8874076e-38
48.328735 34.666851 2.0692916 1.8874076e-38
48.296738 34.723316 0.75482488 1.8874076e-38
48.360046 34.712448 1.1894662 1.8874076e-38
48.273438 34.736599 1.6332412 1.8874076e-38
48.338356 34.725361 2.0687828 1.8874076e-38
48.332993 34.77272 1.1909386 1.8874076e-38
48.339813 34.775082 1.6313913 1.8874076e-38
48.342426 34.778381 2.0683386 1.8874076e-38
48.238297 34.851509 1.1957647 1.8874076e-38
48.233326 34.856544 1.6339455 1.8874076e-38
48.350967 34.833706 2.0678599 1.8874076e-38
48.318008 34.887146 1.1919287 1.8874076e-38
48.352776 34.887154 2.0674202 1.8874076e-38
48.313477 34.949112 1.6315614 1.8874076e-38
48.364895 34.941624 2.0669355 1.8874076e-38
48.364429 34.99548 2.0665009 1.8874076e-38
48.200836 35.023434 1.1979536 1.8874076e-38
48.266106 35.013062 1.6326061 1.8874076e-38
48.369095 35.054871 2.0660028 1.8874076e-38
48.346142 35.109501 1.6301911 1.8874076e-38
48.378082 35.106594 2.0655515 1.8874076e-38
48.392151 35.153385 1.6288347 1.8874076e-38
48.381054 35.159565 2.0651116 1.8874076e-38
48.383869 35.212521 2.0646727 1.8874076e-38
48.387184 35.268673 2.0642056 1.8874076e-38
48.386406 35.325596 2.0637474 1.8874076e-38
48.348278 35.443481 2.4968488 1.8874076e-38
48.349548 35.503006 2.49613 1.8874076e-38
48.393867 35.554405 2.4963436 1.8874076e-38
48.39109 35.604248 2.0614729 1.8874076e-38
48.352676 35.660515 1.6280246 1.8874076e-38
48.32769 35.66885 2.0611773 1.8874076e-38
48.359154 35.719372 2.0606549 1.8874076e-38
48.423874 34.407715 0.74311304 1.8874076e-38
48.411964 34.526566 0.7449832 1.8874076e-38
48.587547 34.597691 1.178026 1.8874076e-38
48.465714 34.622589 0.7419194 1.8874076e-38
48.471863 34.736755 0.74236751 1.8874076e-38
48.418259 34.806648 0.74673736 1.8874076e-38
48.593414 34.883224 1.1783936 1.8874076e-38
48.588181 34.99995 1.1788642 1.8874076e-38
48.536583 35.115345 0.74032354 1.8874076e-38
48.525833 35.171577 0.74144137 1.8874076e-38
48.400848 35.205166 1.6284304 1.8874076e-38
48.527306 35.228561 0.74167204 1.8874076e-38
48.408096 35.260578 1.6280483 1.8874076e-38
48.53056 35.28513 0.74176013 1.8874076e-38
48.409298 35.317177 1.6278176 1.8874076e-38
48.534275 35.344921 0.74182034 1.8874076e-38
48.414879 35.37619 1.6274587 1.8874076e-38
48.403748 35.382217 2.0632265 1.8874076e-38
48.547039 35.389469 0.74113441 1.8874076e-38
48.419746 35.421963 1.6271632 1.8874076e-38
48.40271 35.4291 2.0628502 1.8874076e-38
48.598694 35.443901 1.1788633 1.8874076e-38
48.426956 35.480598 1.6267551 1.8874076e-38
48.409912 35.487679 2.0623498 1.8874076e-38
48.430046 35.539986 1.6264485 1.8874076e-38
48.41692 35.546268 2.0618501 1.8874076e-38
48.416031 35.595829 1.6266035 1.8874076e-38
48.657879 35.039436 1.175499 1.8874076e-38
48.692307 35.086647 1.1738749 1.8874076e-38
48.632713 35.153412 1.1769021 1.8874076e-38
48.669468 35.203545 1.1751525 1.8874076e-38
48.670834 35.260921 1.1751487 1.8874076e-38
48.682465 35.319603 1.1746316 1.8874076e-38
48.68354 35.366798 1.174618 1.8874076e-38
