# .PCD v0.7 - Point Cloud Data file format
VERSION 0.7
FIELDS x y z rgb
SIZE 4 4 4 4
TYPE F F F F
COUNT 1 1 1 1
WIDTH 86
HEIGHT 1
VIEWPOINT 0 0 0 1 0 0 0
POINTS 86
DATA ascii
40.071167 48.066154 1.0422168 1.1755123e-38
40.072475 48.116753 1.3561304 1.1755123e-38
40.095394 48.19384 1.0338403 1.1755123e-38
40.049671 48.153736 1.3555399 1.1755123e-38
40.077011 48.228741 1.0329261 1.1755123e-38
40.110989 48.31847 1.0260777 1.1755123e-38
40.086525 48.349712 1.3463662 1.1755123e-38
40.171021 48.477913 0.68856668 1.1755123e-38
40.086655 48.402359 1.3442621 1.1755123e-38
40.155674 48.523445 0.68639481 1.1755123e-38
40.128109 48.499134 1.0150653 1.1755123e-38
40.078896 48.454498 1.3424699 1.1755123e-38
40.022488 48.451569 0.048957109 1.1755123e-38
40.160484 48.58326 0.3508724 1.1755123e-38
40.144814 48.571571 1.0100933 1.1755123e-38
40.032124 48.510456 0.041764975 1.1755123e-38
40.11718 48.597244 1.3353064 1.1755123e-38
40.033634 48.571987 0.035137177 1.1755123e-38
40.043934 48.635597 0.027347326 1.1755123e-38
40.176155 48.767082 0.99737489 1.1755123e-38
40.13493 48.729038 1.32933 1.1755123e-38
40.046566 48.695595 0.020727873 1.1755123e-38
40.062283 48.761826 0.01206255 1.1755123e-38
40.183311 48.880795 0.32236111 1.1755123e-38
40.172462 48.871815 0.65991676 1.1755123e-38
40.161461 48.862671 0.99274671 1.1755123e-38
40.061237 48.822433 0.0057301521 1.1755123e-38
40.063366 48.879616 -0.0005865097 1.1755123e-38
40.180946 48.99966 0.98389339 1.1755123e-38
40.17028 48.990707 1.3173933 1.1755123e-38
40.077923 48.94939 -0.0095546246 1.1755123e-38
40.078842 49.013092 -0.016476393 1.1755123e-38
40.087177 49.077568 -0.024266005 1.1755123e-38
40.158924 49.155334 1.311069 1.1755123e-38
40.094479 49.148502 -0.032660961 1.1755123e-38
40.199219 49.258396 0.96805882 1.1755123e-38
40.193123 49.253773 1.3057697 1.1755123e-38
40.099045 49.213596 -0.040163517 1.1755123e-38
40.10331 49.278805 -0.047666311 1.1755123e-38
40.11047 49.343777 -0.055455446 1.1755123e-38
40.1045 49.399292 -0.060894251 1.1755123e-38
40.18972 49.430923 1.2985702 1.1755123e-38
40.082245 49.434601 -0.062492132 1.1755123e-38
40.068092 49.478424 -0.065858126 1.1755123e-38
40.041901 49.517181 -0.067470312 1.1755123e-38
40.025185 49.554928 -0.069942713 1.1755123e-38
40.244148 48.829227 0.32163119 1.1755123e-38
40.234531 48.993168 0.30779278 1.1755123e-38
40.23674 48.99688 0.64622462 1.1755123e-38
40.256149 49.126892 0.29385459 1.1755123e-38
40.232285 49.168625 0.63388765 1.1755123e-38
40.223198 49.161125 0.97238815 1.1755123e-38
40.202839 49.14241 1.3099911 1.1755123e-38
40.248852 49.24218 0.62728691 1.1755123e-38
40.24765 49.304035 0.2785114 1.1755123e-38
40.230618 49.288452 0.62511945 1.1755123e-38
40.254662 49.372517 0.2716589 1.1755123e-38
40.258572 49.438301 0.26530409 1.1755123e-38
40.244316 49.426857 0.95592844 1.1755123e-38
40.266792 49.505245 0.25845993 1.1755123e-38
40.282188 49.522537 0.60408711 1.1755123e-38
40.258331 49.499645 0.95096338 1.1755123e-38
40.271488 49.572685 0.25185657 1.1755123e-38
40.236832 49.540058 0.9497366 1.1755123e-38
40.215748 49.519855 1.2939361 1.1755123e-38
40.284626 49.645588 0.244017 1.1755123e-38
40.270294 49.693436 0.939026 1.1755123e-38
40.303932 49.794674 0.5821104 1.1755123e-38
40.272411 49.763165 0.93482602 1.1755123e-38
40.210358 49.699642 1.2866292 1.1755123e-38
40.291229 49.973141 0.9214772 1.1755123e-38
40.275002 49.957336 1.2735015 1.1755123e-38
40.32127 50.065483 0.56034601 1.1755123e-38
40.306755 50.051426 0.91604352 1.1755123e-38
40.292011 50.037109 1.269533 1.1755123e-38
40.349747 50.228981 0.5459137 1.1755123e-38
40.326065 50.204788 0.90594208 1.1755123e-38
40.372726 50.313248 0.53790259 1.1755123e-38
40.286251 50.221905 1.2619073 1.1755123e-38
40.323074 50.331898 0.89850509 1.1755123e-38
40.304714 50.313229 1.2573743 1.1755123e-38
40.362988 50.50824 0.88591111 1.1755123e-38
40.343571 50.488163 1.2485502 1.1755123e-38
40.386295 50.593575 0.51533151 1.1755123e-38
40.37537 50.58287 0.88079762 1.1755123e-38
40.358742 50.565784 1.244699 1.1755123e-38
